14.979994021123275 15.468545202165842 15.734801720827818 15.580722335726023 14.945309192407876 14.734834944829345 13.902379050850868 13.216008022427559 12.847855612635612 12.395160645246506 11.833506301045418 12.329544872045517 12.867386788129807 13.123172298073769 12.843294963240623 13.45318615436554 13.972121737897396 14.25213536247611 14.947294358862564 14.295491259545088 13.823634311556816 14.11454563960433 14.621465150266886 14.61005263030529 14.820834109559655 15.104152550920844 15.206824312917888 14.870153605006635 15.396661637350917 15.428551426157355 15.186909916810691 14.892892276402563 14.677860857918859 14.765296513214707 15.472970344126225 15.469228103756905 15.618810430169106 14.393173735588789 14.16576974093914 13.708842135965824 14.418195225298405 15.243784412741661 15.794289875775576 15.906694773584604 16.088559664785862 16.83157369494438 17.49333120882511 18.06642048060894 18.869551420211792 18.659356981515884 18.58954444527626 18.413203731179237 18.07290717959404 17.37354911863804 16.679026298224926 16.12410183995962 15.457635428756475 15.05930672166869 14.503532275557518 13.921408653259277 14.834455540403724 15.37707969546318 15.737324841320515 15.765030886977911 15.508519224822521 14.899558962788433 13.792512975633144 13.135912455618382 13.15455000847578 13.328601010143757 13.172274492681026 13.334310986101627 13.365285582840443 13.870950266718864 14.01216845959425 14.909175387583673 15.189268249087036 15.967124328017235 15.763846300542355 15.848531350493431 15.17604532185942 14.329513739794493 13.879077918827534 14.271431285887957 13.963098004460335 13.672063685953617 13.66769414395094 13.654037676751614 13.965754061937332 14.193967636674643 13.992625884711742 13.315303064882755 12.40223653614521 12.358783185482025 12.918262258172035 13.04954543709755 13.007903918623924 13.833175264298916 14.779032692313194 15.207527806051075 15.628663580864668 15.819564387202263 16.106496714055538 17.19175242997844 17.802989813596994 18.821568585182952 19.71103752403719 19.625912468402813 19.187381364397833 18.583434245731162 18.45013465276459 17.780028592722008 17.09833726286888 16.66104968637228 15.440895399078727 14.744312698021531 14.968412584858015 15.444689132273197 15.710394736379385 16.210964061319828 16.01173348724842 15.473575796931982 15.012478076387197 15.057924196589738 15.15677208546549 14.546993477270007 13.890204839408398 14.327926877886057 15.081235519610345 15.86183762177825 15.545691680163145 15.843328032642603 16.116185523569584 16.689669862389565 16.53601359575987 16.47595502436161 16.120822057127953 15.430006133392453 14.714993918314576 15.385136436671019 15.123627330176532 14.8428945383057 15.0795245077461 15.453408574685454 14.745527291670442 13.867126442492008 12.973316386342049 12.103307694196701 12.582043558359146 13.351407498121262 13.771482557058334 14.056731685996056 13.536442033946514 13.62213235348463 14.3724968098104 14.715650165453553 14.96194678475149 15.547202993184328 15.49869054928422 15.39316744543612 14.859187211841345 14.360090307891369 13.978454880416393 14.109872505068779 14.421806652098894 14.783793920651078 14.50900498777628 14.469623398035765 15.342230899259448 16.272523552179337 17.083016484975815 18.17392811179161 18.61579455435276 18.734930008649826 18.351565450429916 17.979094237089157 18.019961938261986 18.62042762339115 17.865545824170113 16.651691123843193 15.497401524335146 14.921646039001644 14.022708870470524 13.563864268362522 13.868192732334137 14.27547549828887 14.535979628562927 14.97707377653569 14.424184821546078 13.737533390522003 13.066881448030472 13.066217824816704 13.068214058876038 13.338724114000797 13.594701960682869 13.570964634418488 14.050268903374672 13.945420123636723 13.433375135064125 13.833181969821453
14.271436259150505 14.583301367238164 14.700238248333335 14.740361804142594 14.531346447765827 13.979082740843296 13.3370391279459 12.357688397169113 12.324821278452873 11.834635511040688 11.907458379864693 11.779648661613464 12.041749879717827 12.255967631936073 12.608975172042847 12.895779982209206 13.50779615342617 13.803700022399426 14.121133591979742 13.993664905428886 13.525013476610184 13.552239574491978 13.599470257759094 14.2592897079885 14.150819163769484 14.286020267754793 15.043275710195303 15.317951459437609 15.143837495706975 14.652397837489843 14.834089712239802 14.957945969654247 14.643776379525661 14.957968719536439 15.490152519196272 15.909817926585674 16.01632095873356 15.717798080295324 15.026185821625404 14.649677099660039 14.795930609107018 15.629485733807087 16.2238185480237 16.588466987013817 17.135716751217842 17.39149421453476 18.060917481780052 18.589112386107445 18.591453284025192 18.6124487221241 18.60310658812523 18.19469064474106 17.69260011613369 16.81477267295122 16.09123472124338 15.808904226869345 15.614544544368982 14.875210518948734 14.172677770256996 14.029193669557571 14.033965319395065 14.880454586818814 15.122229158878326 14.7899507638067 14.634097879752517 14.088218864053488 13.190664164721966 13.028994351625443 12.736600264906883 12.761631086468697 13.255240581929684 12.99091950058937 13.215112276375294 14.126320872455835 14.595431042835116 14.597910856828094 14.98205357347615 15.481559503823519 15.349193774163723 15.500947125256062 15.174140324816108 14.821021584793925 14.492619596421719 14.102411326020956 13.658928014338017 13.635816760361195 13.690780699253082 13.269895613193512 13.79252515733242 14.024795517325401 13.890422992408276 13.329287096858025 13.122214302420616 13.195367306470871 13.179047852754593 13.88403307646513 14.56952246837318 14.739455776289105 14.897175331134349 15.217844531871378 16.121645495295525 16.779672839140144 16.886088951797845 18.09104493863061 18.817633406409147 19.121026044339438 19.270340893951587 19.80240005483994 18.87972364255541 17.875004728884 18.063957260140302 17.58769399530366 17.020460806162717 16.530361622964588 15.591771192848682 14.893140045460314 15.218498334288597 15.64015282317996 16.278462607340405 16.721454939829687 17.161884958204347 16.90995198412573 16.397448811195154 16.047346885762472 15.82361480890548 15.310698650591544 14.869880515175446 14.569340303467106 15.214068973436952 15.439579132944345 15.606354419142008 16.1705332249403 16.463931910693645 16.890466064214706 16.59685716032982 16.545695811510086 16.104572117328644 15.872411448508501 14.683675300329924 14.789319103583694 14.955688255140558 14.780602036044002 14.77249909657985 15.186163354665041 14.440431408584118 13.771410584449768 12.854358404874802 12.741663828492165 13.228771984577179 14.051800109446049 14.13255712017417 14.046545885503292 13.678485341370106 13.538659326732159 13.537186682224274 13.865042366087437 13.694067187607288 14.665628336369991 14.73911496810615 14.755809176713228 13.838124722242355 14.134289603680372 14.112017378211021 14.249031823128462 14.716925835236907 14.627984371036291 14.465656243264675 14.805910047143698 15.383239444345236 16.48306768387556 17.500327974557877 18.106017485260963 18.30100178718567 18.93614888191223 18.69274266064167 18.29626366496086 18.503269627690315 18.72963309288025 17.548106163740158 16.28224689513445 15.822797007858753 15.155930947512388 14.564286293461919 14.126436710357666 14.07919691875577 14.79070654604584 14.83421660028398 14.965666722273454 15.027696135803126 14.124331958591938 13.347336128354073 12.704233154654503 13.098965361714363 13.48000343888998 13.566882200539112 13.67536660283804 13.63059114664793 13.803673535585403 13.911371156573296 14.35932794585824
13.254854790866375 13.700066171586514 13.896476849913597 13.764377497136593 13.320538848638535 12.841819077730179 12.69220769405365 12.115112319588661 12.55671501159668 12.38652616739273 11.8504299223423 11.70779898762703 11.10070064663887 11.18389293551445 11.793422475457191 12.542676106095314 12.909412756562233 13.16617850214243 13.406214863061905 13.461107388138771 13.636781349778175 13.568417318165302 13.213993459939957 14.054593071341515 14.246874656528234 14.885962517000735 15.427476447075605 15.160789880901575 14.712666068226099 14.193026069551706 14.147183541208506 14.182413797825575 14.065536484122276 14.499295558780432 15.488691050559282 16.05269070714712 16.601794213056564 16.554889976978302 15.562124401330948 15.487011708319187 15.669091679155827 15.696417912840843 15.799242798238993 16.599456667900085 17.860298082232475 17.976773008704185 18.20111185312271 19.113625288009644 18.98686856031418 19.30515021085739 19.25254985690117 18.778565526008606 18.07846136391163 17.38975279033184 16.57153967767954 15.976916067302227 15.304845096543431 14.772976613603532 14.281821940094233 14.108237195760012 14.293807782232761 14.614710342139006 14.233710207045078 13.684666603803635 13.577218428254128 13.305596821010113 12.806803733110428 12.886497750878334 12.640200108289719 12.29499600827694 12.478976547718048 13.011612072587013 13.053576573729515 13.878653571009636 14.193880017846823 14.472886472940445 14.569538701325655 15.241092760115862 15.207452746108174 15.494239255785942 15.153704057447612 14.647007016465068 13.920614384114742 13.387199901044369 13.189051486551762 12.632806599140167 12.798401489853859 12.978404089808464 13.482269905507565 13.745761848986149 13.560608848929405 13.68053924292326 13.814869411289692 13.68884738534689 13.558476716279984 14.25960224121809 15.252354880794883 15.709415171295404 15.236421944573522 15.351890944087817 16.715442292364376 17.643099474870098 18.089925376451347 19.112900367333673 19.877064966577763 19.68982132051151 19.707608983968974 19.511776918020004 18.663738609408618 18.42176565799873 18.675541275161976 19.006256407453797 18.456839723265503 17.626785162054432 17.019567131968277 15.917352376649095 15.484480765109506 16.013616818703024 16.949840495250545 17.195204720465235 17.959454562944476 18.309413115481213 17.784387711021665 17.043592314753298 16.764739560881928 16.3732510250631 15.60636891574203 15.80592324946018 15.879359796411602 15.447567478214946 15.82903129979968 16.094756461679935 16.097665764391422 16.433687768876553 16.313098780810833 16.0587577521801 15.902863573282957 15.692981723695993 14.7262529656291 14.73209012299776 14.759605005383492 14.360677264630795 14.037986174225807 14.474004674702883 13.842380605638027 13.341584242880344 12.700966000556946 13.02569791674614 13.62573467195034 13.888176530599594 13.32508910447359 13.196158334612846 13.311305902898312 13.270028717815876 13.890445679426193 13.927785828709602 13.906100392341614 14.323837794363499 14.536264389753342 14.679172458127141 14.477807208895683 13.993250504136086 14.302759934216738 14.446767009794712 15.184800918214023 15.151339215226471 14.974448992288671 15.675519872456789 16.239304170012474 16.661017052829266 16.939322277903557 17.41451896727085 17.91075959801674 18.778781443834305 18.918971121311188 19.066666066646576 18.82908135652542 17.938171550631523 16.586536690592766 15.62407722696662 15.330757247284055 14.947873530909419 15.31771601177752 14.928237127605826 14.981566095957533 15.203177067451179 14.818278634920716 14.171297661960125 14.568177927285433 14.482442624866962 13.697097525000572 13.153677508234978 12.705146446824074 12.81254991889 13.525760807096958 13.306186348199844 13.383635804057121 13.845189437270164 14.090514332056046 14.303232450038195
12.84021332859993 12.766804844141006 13.279586657881737 13.31972200423479 12.59022943675518 12.225203141570091 11.958236172795296 12.284563556313515 12.513599172234535 12.765378132462502 12.43210718035698 11.394256800413132 10.853873938322067 10.822874307632446 11.464787945151329 12.18528002500534 12.909124419093132 12.535319477319717 12.274234816432 12.593720555305481 12.916403487324715 13.077778369188309 12.485733479261398 13.568010069429874 14.067271202802658 14.33833334594965 14.765947409905493 14.95595402782783 14.902582524809986 14.400383234024048 14.3881911970675 13.986789397895336 13.819555900990963 14.06948335468769 15.303903697058558 15.563501212745905 16.084865033626556 16.97485238313675 16.437429785728455 15.87380837649107 15.803108531981707 15.696144104003906 15.9937509521842 17.235796228051186 18.024641275405884 18.27105201780796 18.033154383301735 19.042105078697205 19.338476210832596 19.57860231399536 18.820403069257736 18.073717206716537 17.82494120299816 17.430398762226105 17.113067284226418 16.036192663013935 15.460363766178489 15.20652118138969 14.98194886080455 15.105185536667705 15.050012364517897 14.641418103128672 14.573820931836963 14.280044082552195 13.529707007110119 13.327365964651108 13.003106564283371 12.363690733909607 11.648445278406143 11.567852273583412 11.916662380099297 12.340503931045532 12.225373461842537 12.872486561536789 13.58409482985735 13.645876161754131 13.93105398863554 13.93906082957983 14.136067070066929 14.530094973742962 14.770331103354692 14.284014366567135 13.950007148087025 13.486505895853043 12.827194333076477 12.756629437208176 12.513230815529823 12.275532335042953 12.123808711767197 12.794078886508942 13.06802250444889 13.30235805362463 13.559363968670368 13.498387858271599 13.846262767910957 14.764695391058922 15.567750670015812 15.908370427787304 16.00892082512843 17.04012213102176 17.94066868538605 18.40076231430802 19.328691225862045 19.697716928014508 19.89524630940543 19.9189408452543 19.917704338690264 19.471138886740153 19.689156980768217 19.609208035089353 20.074517890344016 20.45443919199902 20.190007773008354 19.374697836035295 18.314704596407353 17.804521700898718 17.527437099051156 16.568640043088642 17.51663897392014 18.135910904710258 18.613319798781255 18.478628807756518 17.92071016040253 17.631235211161844 16.947163344416236 16.86910995416222 16.517110648308957 16.377196407137905 15.839404993824617 16.051163530637446 16.099672494571657 16.144194224992706 15.909634195268154 15.958409495651722 16.011524498462677 15.856713987886906 15.613339114934206 15.652470421046019 15.582245215773582 14.982631476013921 14.819062552414834 14.884804612956941 13.952791392803192 13.780988194048405 13.321125246584415 13.13017588108778 12.829582840204239 13.216093964874744 13.856037184596062 13.651069700717926 13.331854976713657 13.34328643977642 13.127009309828281 13.268186040222645 13.42119388282299 14.154927972704172 14.287949223071337 14.679229287430644 14.60411500185728 14.607591396197677 14.602102926000953 14.835102497600019 15.360388671979308 15.396678820252419 15.540952999144793 15.205613519065082 15.105755855329335 16.171146668493748 16.844421476125717 17.150943651795387 17.760687097907066 18.11273418366909 18.220273107290268 18.50523054599762 19.135635942220688 18.52743051946163 18.308766558766365 17.363353818655014 15.731086749583483 15.479894075542688 15.032792090205476 14.69030985608697 14.707311987876892 14.555647149682045 15.374261811375618 15.416225027292967 14.957821166608483 14.253764301538467 14.56093861721456 14.132444132119417 14.083428382873535 13.635805137455463 13.107165321707726 12.813249081373215 13.048122748732567 13.311834521591663 13.596029207110405 14.004230462014675 14.890004766639322 15.591592658311129
12.931547686457634 12.348702996969223 12.600807845592499 12.532164752483368 12.952265962958336 12.93175108730793 12.991382405161858 12.778063863515854 13.23491770774126 12.604801207780838 11.88058041036129 10.775274932384491 10.6060029566288 10.834570527076721 10.809865593910217 11.70728400349617 12.372191324830055 12.605487629771233 12.317463532090187 11.94458395242691 12.34002985060215 12.637577131390572 12.077241092920303 12.93849527835846 13.330431059002876 13.809625580906868 14.3692197650671 15.351257007569075 15.830848775804043 15.042418063385412 15.0 14.628896685317159 13.884869143366814 14.422107730060816 14.904562204610556 15.237993523478508 15.792403165251017 16.149915419518948 16.282044611871243 15.676174834370613 15.755208358168602 15.643107555806637 16.007035933434963 17.277304083108902 17.92973890900612 17.877553403377533 17.798410803079605 18.30975741147995 19.39869850873947 19.884473383426666 18.809524029493332 17.684187814593315 17.749397233128548 17.828784361481667 17.84022130072117 16.87701277434826 16.020686700940132 15.668262988328934 16.1512354016304 16.145041957497597 15.591517835855484 15.321044521406293 14.734789654612541 14.67424426227808 13.957366794347763 13.761465847492218 13.682754412293434 12.586946859955788 11.485002860426903 11.257957220077515 11.584821492433548 11.928635090589523 12.507129460573196 12.415407747030258 12.958219349384308 12.82335564494133 12.908108618037295 13.59237975916365 14.160617425288487 14.332801256321499 14.424278821318577 14.376698847852776 14.348700124021102 13.16348347357014 12.973905663864207 12.700689509510994 12.240082919597626 12.13177777826786 11.99150562286377 12.097989544272423 12.931547686457634 13.696566447615623 13.592371568083763 14.200598448514938 14.387741815298796 15.312500009313226 16.355179399251938 16.23229707978101 17.25649929702014 17.816569356601356 18.373084408006143 18.754616529407414 19.99285011390567 20.30200563270687 20.553387874284873 20.55007362690266 20.587965606852066 20.379365546201328 21.060379089865084 21.213750045362254 21.689173351813796 22.46945036493169 22.240203367318376 21.47452543691358 20.23400431363792 19.846820226738444 19.13407249421935 18.37723034808128 18.80186150832873 18.893493158571985 19.08228142625536 19.173559022352276 18.59942736842686 18.24857822426611 17.867635623841274 17.60788171515213 17.282114198617233 16.736147566516774 16.814284870936508 15.991838145769428 16.214094465643328 16.565555884537403 16.62241623461711 16.711194030940533 16.71692367643118 16.6402180865407 16.337554827332497 15.971639715135098 15.583666451275349 14.995336404681439 14.802827378734946 14.822882981970906 14.615290062502027 14.055670760571957 14.117772337049246 14.108850415796041 13.773814626038074 14.119280185550451 14.751623030751944 14.297180715948343 13.785342313349247 13.436952978372574 12.974922582507133 13.255172185599804 13.474145047366619 13.70716642588377 14.18182672932744 14.3703549541533 14.397020917385817 14.1072010807693 14.836309519596398 15.088121225126088 15.158467129804194 15.396634144708514 15.696799959987402 15.420895535498857 15.127563681453466 15.817449800670147 16.87263496220112 17.40767017006874 17.85714291036129 18.15639093518257 18.03347647190094 18.70515212416649 18.737987279891968 18.14329594373703 17.819255366921425 17.218496650457382 16.183426938951015 15.425668777897954 15.0 14.43771293386817 14.654584368690848 14.297079965472221 14.397117085754871 14.482785165309906 14.154712446033955 14.351658448576927 14.387615695595741 13.87743093073368 13.883928582072258 13.892704993486404 13.658188506960869 13.668708801269531 13.728456906974316 14.006594717502594 14.09745616838336 14.741990519687533 15.563651416450739 15.836291201412678
12.860266417264938 12.387882024049759 12.345613539218903 12.960698381066322 13.65921813994646 13.855800814926624 13.96647747606039 14.05688613653183 13.578517064452171 12.533510327339172 11.599375605583191 10.61678096652031 10.57271271944046 10.525824576616287 10.866813361644745 11.158147305250168 12.282375767827034 12.791344374418259 12.520363479852676 12.027223706245422 12.349424734711647 12.538873627781868 12.26282313466072 12.54167340695858 13.21278803050518 13.135626800358295 14.153460692614317 15.700584836304188 16.66835244745016 15.948204137384892 15.962711200118065 15.582676883786917 14.484063293784857 14.521143604069948 14.72285645082593 15.174102983437479 15.747970305383205 15.936542004346848 15.816514883190393 15.796423461288214 15.556403417140245 15.807538200169802 15.738237239420414 16.74578581005335 17.418109327554703 17.672209069132805 17.680644616484642 18.65557037293911 19.395538419485092 19.83400985598564 19.09629061818123 17.853194698691368 17.848534807562828 18.421986624598503 17.8473349660635 17.413237988948822 16.683088839054108 16.44586130976677 16.633069440722466 16.720344945788383 16.26494474709034 15.730922799557447 15.78131329268217 14.717111522331834 14.29592790082097 14.052132032811642 13.809897378087044 13.161807395517826 11.934947669506073 11.239676177501678 11.424654945731163 11.655391305685043 12.231196984648705 12.150172367691994 12.119629942273345 11.902303203316094 12.057168910791832 13.567860333301159 13.878432846074075 14.361743812059267 14.346982820866964 14.32635407576452 14.04278710335967 13.501123173214527 12.921208123257118 12.626258685560586 12.117156722044196 12.342086210846901 11.830033287405968 12.12748110294342 12.835031971335411 13.601806573569775 14.453798700124025 15.012537311995402 15.123317074030638 15.945724099874496 16.643380858004093 17.223101560285254 17.748044079186617 18.236908890379176 18.932678634919885 19.63857285826672 20.32610504758285 20.70565703257181 21.10185741709334 21.52329572552345 21.84494529036191 22.12455145228326 22.839382758785085 23.20963392599184 23.78775283508328 24.87773430912258 24.750457564202677 24.113328439870607 22.510445215757393 21.666111769944184 21.04668001201454 19.813109259720896 19.763570082349215 19.517677605883033 19.441327776778145 19.8012758512526 19.450362523022932 18.978119699306614 18.54594774297203 18.464032109677415 18.277101560727864 17.86685857169202 17.411004660454978 16.498666373858523 16.337975845987618 16.899395471399696 17.27105429223373 17.503374027231647 17.354724928736687 17.603603526949883 17.40527853369713 16.45009495317936 15.814863480627537 14.955392387928441 14.639709535986185 14.704988691955805 14.66895405203104 14.524889029562473 14.724378297105432 15.070845815353096 15.064434392843395 15.50532940775156 15.602912362664938 14.832763709127903 14.23990884795785 13.620327226817608 12.85054698586464 13.394222371280193 13.391175270080566 13.721713721752167 13.9882343262434 14.517136551439762 14.59796997718513 14.814574182964861 15.3552907705307 15.184003449976444 14.967491874704137 14.827084885910153 15.482875909656286 15.264900466427207 15.198601065203547 15.724744834005833 16.545506045222282 17.08504021167755 17.561463117599487 17.736717984080315 18.17328840494156 18.05675983428955 18.0667707324028 17.540163919329643 17.40996815264225 17.159364446997643 16.043578572571278 15.590733904391527 15.164357819594443 14.810307179577649 14.749378357082605 14.14165349677205 13.999173492193222 13.538521640002728 13.644712530076504 14.085697643458843 14.269428458064795 14.143809825181961 14.277195855975151 14.364481531083584 13.896710202097893 14.214966483414173 14.56739779561758 14.666731031611562 14.713396104052663 14.899407851044089 15.259869676083326 16.075489036738873
13.090174421668053 12.49485120177269 12.983535155653954 13.82481001317501 14.610851453617215 14.663471896201372 14.59380473010242 14.61223284713924 13.769856132566929 12.696574330329895 11.912726685404778 10.785669833421707 10.052675753831863 10.096888840198517 11.061239093542099 11.485938280820847 12.153872698545456 12.953939884901047 12.461632490158081 12.063013315200806 12.492109760642052 12.421126440167427 12.2196663916111 12.249210253357887 12.771238759160042 13.006263077259064 14.213634375482798 15.43464532122016 16.300578005611897 16.40913773328066 16.572846360504627 16.299303509294987 14.995898640045198 14.996743833835353 14.66961887665093 14.777281293645501 15.748640689998865 15.911916811019182 16.07071738690138 15.875261463224888 16.124332398176193 16.160536520183086 16.59343086183071 17.22873665392399 17.364721074700356 18.125530779361725 18.980073630809784 19.24047499895096 19.97563987970352 19.74854350090027 19.292486608028412 19.0610508620739 18.44897300004959 18.713874220848083 18.01282212138176 17.63338878750801 17.376815602183342 16.95608988404274 17.35552668571472 17.67432041466236 16.838689260184765 16.017514877021313 16.379821300506592 15.519151501357555 15.352033786475658 14.510903488844633 13.51522721350193 13.107350170612335 12.478037998080254 11.760840564966202 11.321940869092941 11.49012565612793 11.606218772152378 11.3379258066137 11.23644487069814 11.567652447526426 12.058540101909463 12.687275047342919 13.541090731057364 13.370056096971409 13.700864272621962 14.312406871974842 14.243038017782409 13.941664072613857 13.6648198625086 13.101152031128377 12.26385341094701 12.207568824263351 12.254713656524135 12.472418770194054 13.414002552336022 14.465653442164621 14.93069805939387 16.340371444042766 16.827613478471388 17.511003378271806 18.14796213455544 18.945082934795153 18.634157245702408 19.06611078292732 19.487605231896033 20.54683394594986 20.805667200291563 20.616624591001788 20.859875367666255 21.83979891128634 22.07446357429172 22.781130547571205 24.253078269879115 25.34033046209733 25.828582281136924 26.112537037496395 25.923198765559704 25.786960933162245 24.874220284490388 23.619493498368595 22.724998114622366 21.423644275320513 20.715851451888195 20.715663660899306 21.102268827163442 20.930335231907744 20.610967699715207 19.463872117452038 19.2185136151938 18.955369266440776 18.97309867630458 18.159932079279773 17.844722972889343 17.427223645351912 17.185491036865503 16.94051129131467 16.728742605099548 17.31961512562825 17.588614225387573 17.469849810004234 17.10896596312523 16.946623921394348 16.621498055756092 16.167128942906857 15.224142191000283 14.782180655747652 14.561469638720155 14.789703260175884 15.497603584080935 15.418542120605707 15.923311617225409 15.563601013273 15.24288771674037 14.624724872410297 14.04584001749754 13.427911140024662 13.36090262979269 13.670473024249077 14.006251953542233 13.949813582003117 13.824510164558887 14.370085392147303 14.760306403040886 15.236148750409484 15.367720574140549 15.330630093812943 15.229436717927456 14.846858773380518 14.303732737898827 14.578083520755172 15.195429562591016 15.18659911584109 15.44027142226696 16.54987011104822 17.0869492739439 17.695263996720314 18.032350167632103 17.772014290094376 17.929895147681236 17.464149445295334 17.009723782539368 16.997499391436577 16.082982793450356 15.374128259718418 15.485516041517258 15.505285151302814 15.084005396347493 13.748586103320122 13.620953634381294 13.724821954965591 13.290110304951668 13.777208179235458 14.22234719619155 14.246354810893536 14.300596788525581 14.488143939524889 14.531408613547683 14.707756089046597 14.735130406916142 15.085669937543571 15.08296940010041 15.0057105543965 15.304683716967702 15.788135044276714
13.910599909722805 13.797185719013214 13.999134711921215 14.493228681385517 14.723219443112612 14.295087195932865 14.532179217785597 14.407691303640604 13.75906728208065 13.329319171607494 12.337113842368126 11.278082951903343 10.404844880104065 10.543042123317719 11.254244819283485 11.573988497257233 12.106809094548225 12.942548766732216 12.641440406441689 12.55380593240261 12.776761204004288 13.091885671019554 12.862023264169693 13.100645318627357 13.369630090892315 13.7432299554348 13.877494968473911 14.577984614297748 15.559225045144558 15.72500467300415 16.210818216204643 16.328507624566555 15.391969000920653 15.523100607097149 14.72458633594215 15.14304878655821 15.735895279794931 15.514083690941334 15.573816206306219 16.02435640990734 16.36771135032177 16.93118266761303 17.425537034869194 17.868357449769974 18.336210921406746 19.480722695589066 20.192610025405884 20.059578269720078 20.51284432411194 19.999770373106003 20.02936363220215 19.646344631910324 19.107668101787567 19.046543687582016 18.352628499269485 18.19548323750496 18.305174857378006 17.860132455825806 17.890792340040207 17.634173780679703 16.569584794342518 15.862322431057692 15.674854405224323 15.476633850485086 15.732632372528315 14.661046704277396 13.522178158164024 12.588392123579979 12.04433262348175 11.801931783556938 11.332496032118797 11.466965868179672 11.748959295444319 11.674258766748043 11.82521789120064 12.075004706978575 12.106341306050421 12.17608864072193 13.231589275718898 13.164606897143143 13.431685386177822 14.216227514652031 14.244615922988624 14.150632122787131 14.168865937669874 13.659598695933596 12.609549004300693 12.656739188410373 13.448564817756422 13.970470063286186 14.472371683198931 15.371508198572313 15.59173109677021 17.23843481272659 19.027135550672284 19.615315980259204 20.318138943236452 20.982102312416593 20.220974792035932 19.850237777945065 20.266138995634464 20.53696306283045 21.17334601715968 21.43804904192375 21.258550152567246 21.777944021906233 22.59644074729054 23.486253731076705 25.011647915922225 26.212893652243764 27.153225825592212 27.30768980764623 27.620021876182363 27.04380142934198 25.832072230953905 25.19235320808312 24.307189993267098 23.32273437528934 22.705159510267794 22.48913186490992 22.41054741662815 22.98435820392178 22.472059809743012 21.123284036833628 20.16512715024645 19.715620676731316 19.422336326121247 18.470057717956337 18.224949982355877 17.72369860777354 17.415696119694775 16.95212410963769 16.43657738197043 16.68478128608359 16.851854101216045 17.362852916121483 17.365783005952835 17.81161107122898 17.703968659043312 16.756008714437485 15.865097902715206 14.88561665872112 14.673085547983646 15.027775480994023 15.337704587727785 15.447576446458697 16.029903776943684 15.669469814747572 15.291731748729944 15.11911315843463 14.582477398216724 14.072827566415071 14.164656400680542 14.423602279275656 14.348297528922558 13.492386862635612 13.374844193458557 13.703262247145176 13.829073943197727 14.832416363060474 15.368151040747762 14.986273479298688 14.770311308093369 14.612429682165384 14.1536152549088 14.028761275112629 14.590641874819994 14.818593976087868 14.838125347159803 15.666792299598455 16.151084527373314 16.777748242020607 17.653227522969246 17.737853452563286 17.625422850251198 17.218092754483223 16.941604167222977 16.389002948999405 15.586312394589186 14.874848197214305 15.129034230485559 15.53102346137166 15.238114949315786 14.425398465245962 14.201357569545507 14.45117600262165 14.093040246516466 14.051502048969269 14.756631273776293 14.658573539927602 14.828358460217714 14.627128718420863 14.93835725588724 15.321296509355307 15.195022537373006 14.878639443777502 15.054139679996297 14.804849401116371 15.001699456188362 15.427397238090634
14.692199723795056 14.663199931383133 14.498708378523588 14.966567658120766 15.456681037321687 14.677733704447746 14.11451680585742 14.272011425346136 14.279288817197084 13.845319636166096 13.242357261478901 11.820013225078583 10.473302453756332 10.732351988554 11.084372252225876 11.622695624828339 12.565057575702667 12.759687826037407 13.014262989163399 13.130715787410736 12.949112132191658 13.199893087148666 13.338318429887295 13.369454182684422 13.474860303103924 13.831568621098995 14.372827894985676 14.290234856307507 15.124219078570604 15.580890979617834 15.571153946220875 15.429676249623299 15.050123470136896 15.249410066753626 15.157834212295711 15.403144089505076 15.984760075807571 16.18103016167879 15.923770442605019 15.888230223208666 16.444838382303715 17.513214871287346 18.586109206080437 18.187000527977943 18.675150722265244 19.44565549492836 20.148145705461502 20.652168095111847 20.086214393377304 19.5389387011528 20.032573342323303 19.9458347260952 19.371429830789566 19.10857602953911 18.956995457410812 18.337825164198875 17.997123152017593 17.927487641572952 17.60363481938839 17.46168963611126 16.829488165676594 16.140242032706738 15.633974075317383 15.50994012504816 15.3422696236521 14.444098379462957 13.45718630768497 13.29455039939383 12.482192835952569 12.75020311027033 12.845445839353943 12.394270867094654 12.593921681085003 12.79894902042843 12.896734519287033 13.051509510099786 13.169558760328906 12.989574524255886 13.494310149160354 13.496784683471844 14.119431616213078 14.869667221015618 14.335739792493312 14.431124630066051 14.208734710319655 13.93202519726743 13.822680174764578 14.154850054384863 15.573888751339725 16.229624780267038 16.713865471684322 16.733564723347747 17.27624218832104 18.489375606675498 20.506536834581944 22.006033458757706 22.44109233088322 22.64305918077178 22.310974829955825 22.538595813450765 22.211946686539914 22.531558932183398 22.74581202832968 22.529448255838595 22.296956106959637 22.960975618791643 23.364473814163805 24.600518292409145 26.42435777487278 27.327779955262727 27.592897068910602 27.984839652360417 28.46378158195304 28.442419347857832 27.719105389256466 26.762065093632728 26.07955497757074 24.69643108559616 23.760846211716995 23.704240263331283 23.865507236130348 23.475322801151453 23.45295700272527 22.53704423777376 21.23771085272284 20.43116296546019 20.255097268624915 19.565298535485127 18.77137937523416 18.81990828173048 18.19400444252793 17.202207086044577 16.858303298022754 16.798950270949 17.390970437337874 17.29987164801033 17.725631414937357 18.282723959462235 18.23759749531746 17.05375425517559 16.02679744362831 15.553499422967434 15.381569685414433 15.201844596304 15.663295984268188 16.05220891535282 16.159472577273846 16.514089107513428 15.641750022768974 15.51921145990491 15.511869192123413 14.780031563714147 14.755858182907104 14.85709982458502 14.116215258836746 13.40693548321724 12.95033723115921 13.22908278554678 13.42176128178835 14.630645457655191 15.273319445550442 15.155611555092037 14.776766267605126 14.953088412294164 14.74962456151843 14.581147693097591 14.621631586924195 14.460427276790142 14.319036696106195 14.967206261353567 15.564844831824303 16.517811007797718 17.2481869161129 17.42607682943344 16.827828995883465 16.678681634366512 16.61050658673048 15.979502946138382 15.513459518551826 14.752095015719533 14.524966981261969 14.828543742187321 15.11320649413392 15.591225307434797 15.260797021910548 14.975925867911428 14.618466915562749 14.380751699209213 14.771534283645451 14.600742878392339 14.533113576471806 14.676384553313255 14.760390305891633 14.95094346231781 14.529772270470858 14.134074077010155 14.113700408488512 14.000616408884525 14.456482753157616 14.405472725629807
15.0 14.942349151242524 15.41447650641203 16.013204008340836 15.785767324268818 15.065104169771075 14.33561883866787 14.722826052457094 14.732236806303263 14.315100722014904 13.095237985253334 11.753989979624748 10.786605924367905 10.952394157648087 11.06278046965599 11.88058041036129 12.807937860488892 13.054269477725029 13.30418486148119 13.51713091135025 13.095237985253334 13.496159501373768 13.648990541696548 13.612267300486565 13.273127786815166 13.653273805975914 13.892556130886078 13.960711285471916 14.206643421202898 15.251303287222981 15.0 14.696584548801184 14.508358351886272 14.539571357890964 14.84716156963259 15.394345242530107 16.02287247776985 16.1553667858243 15.972374863922596 16.327658034861088 16.904762014746666 17.90590614080429 17.970971167087555 18.478158339858055 18.765669018030167 19.86049085855484 20.809721052646637 20.819816440343857 20.183022916316986 19.25640419125557 19.761904925107956 19.830641895532608 20.0362528860569 19.375568479299545 19.035366028547287 18.350074365735054 17.93939843773842 18.308834955096245 17.776776552200317 17.232953310012817 16.904762014746666 16.224502064287663 15.443734377622604 15.596372690051794 15.524075003733483 14.57306365606344 14.183683114638287 13.653325123764606 13.712524695699186 13.580255728756292 13.596625438839594 13.208965713751748 13.037265715913723 13.619802857695962 13.590514344981838 13.293937576641628 13.270649765234364 13.81977686235769 13.51371825956578 13.59315256572678 14.321938615402692 14.80009497955519 15.086683568185158 14.807722530749702 14.162494821415558 14.500096348058792 15.360641207129554 15.813608759608341 17.05332507045581 18.282739490061243 18.752061745188847 18.883267725490533 19.664357473537834 20.990273537709466 22.44230234607385 23.941350430044814 24.676083723468242 24.67753984924067 24.399293402244727 24.62801047356655 24.287544477309343 24.524812980715005 25.18665375129106 24.65576505012143 24.458347640014438 24.819630976284113 25.029331404735668 26.021551878751513 27.072342690873956 28.50270809928282 28.679579875918577 28.61814554306987 29.127465938980578 29.469758957938037 28.662109838277917 28.201043706986006 27.818721863139675 26.140490765822435 25.174901358250665 25.000903630126455 24.6969911502359 24.449273511892212 24.15825551089579 23.89715275671536 22.612087426852888 21.89902226481743 21.45699592692917 21.022840405973252 20.478900056819498 19.77779521301852 19.13244492301548 17.859390951229425 17.656011785643287 18.153618873941447 18.380434648559913 18.533593334613933 18.771682791976026 18.78683113481792 18.884085334605782 17.782120518779006 16.904762014746666 16.614677421748638 15.90968543663621 15.840585976839066 16.34533602744341 16.707589253783226 16.84102077037096 16.870170012116432 16.247206181287766 16.073873452842236 15.952381007373333 15.61307480558753 15.378939639776945 15.017859680810943 13.979919701814651 13.292410746216774 13.134005405008793 13.448983021080494 13.538515269756317 14.554902194067836 15.0 15.035746899666265 14.857980133965611 15.320338290184736 15.376412272453308 15.0 14.449689779430628 14.456948172301054 14.571624202653766 14.494765978306532 15.0 16.005292050540447 16.501444280147552 16.054679676890373 16.01196203380823 15.952381007373333 15.83690894767642 15.563968922942877 15.273682326078415 14.868586035445333 15.0 15.017217780696228 15.31336055137217 15.705034006386995 15.51556907594204 15.0 14.712153291329741 14.495555106550455 14.620873164385557 15.057778913760558 15.0 14.617522358894348 14.588876953348517 14.664902659133077 14.500192478299141 14.047618992626667 13.580874502658844 13.591984212398529 14.077176712453365 14.335434772074223
15.517323184758425 15.951464027166367 16.033221781253815 15.972825475037098 15.788141526281834 15.549541041254997 14.939443152397871 14.909380967728794 15.335898203775287 14.186039809137583 12.985058426856995 11.61382868885994 10.965376943349838 10.92256173491478 11.31893277168274 12.263909205794334 12.82058134675026 13.149435818195343 13.01952414214611 13.5178904235363 13.37171595543623 13.226263336837292 13.60813982784748 13.67910660803318 13.263978436589241 13.691014498472214 14.119786955416203 13.728808611631393 13.773873075842857 14.257515035569668 14.290361981838942 13.934086449444294 13.826385475695133 14.421396777033806 14.297993369400501 14.939233961049467 15.436579892411828 15.738481488078833 15.983408130705357 16.876652911305428 17.25441701710224 17.739483565092087 17.8638057410717 18.516695201396942 19.04089093208313 19.789378345012665 20.86056187748909 20.972430109977722 20.35966381430626 19.75573495030403 19.6283420920372 20.242738723754883 20.321959108114243 19.885476976633072 19.370724856853485 18.542158752679825 18.065143525600433 18.54242116212845 18.16586807370186 17.73336499929428 16.839199773967266 16.003464236855507 15.399349531302168 15.028794134007828 15.286749626499475 14.72208006158945 14.516243304872338 14.305951195697926 14.769171141567666 14.272738789176566 14.133278695121783 14.10703376702928 13.906540847361615 14.019575728339069 14.345450169974175 13.921283713505497 14.05982209934702 14.078906754102668 13.809456353384125 14.184246722907222 14.670481084673986 15.2058870744385 15.79046424269276 15.502569603076346 15.291824817365304 15.818089842326884 16.87951989928026 17.795954942143233 19.23369368167737 20.473664352181117 21.049839393109146 21.750098089058323 22.682003656859404 24.337206714708866 25.42157241259495 26.354828548816997 27.309319082722347 27.238793403951316 27.353551247220153 26.910943884465354 26.29010513968522 26.951337497556807 27.543029550007695 27.05120814935539 26.633883644118875 26.71943879470496 27.069136496854664 27.282013472631164 28.236385212535815 29.312941025359525 29.583676876176405 29.792862864256378 30.23013583349471 30.887001776533317 30.20599603950087 29.539619278778964 28.963292496395557 28.308682776495246 26.871444661137954 25.930787949441886 25.705187538693007 25.371439688150396 25.45970408927767 25.217594485036386 24.505150429104756 23.31888039415207 22.63054333633979 22.301115318349748 21.569425222985846 21.035838224882774 20.06421171474459 19.073018198825718 18.77810155246785 19.14511394499396 19.423060471397378 19.345559539779792 19.35258125395056 19.529441708891188 19.42897939043488 18.396191547353688 17.944276305031032 16.991409616688205 16.278003975749016 16.24678373336792 16.703166738152504 17.241043969988823 17.376547381281853 16.89637541770935 16.670614890754223 16.617512069642544 16.81358367204666 16.427548862993717 16.245243698358536 15.308640031144023 14.008569605648518 13.227195516228676 13.385349288582802 13.644978627562523 14.185324385762215 14.738373029977083 14.896888872608542 15.452127596363425 15.511237643659115 15.51375338807702 15.764557085931301 15.619492437690496 14.87173167988658 14.696545097976923 14.513014610856771 14.293799065053463 14.79453013278544 15.223398604430258 15.199436517432332 15.24023319594562 15.366730587556958 15.671900566667318 15.690883677452803 14.748093020170927 14.590333113446832 15.237700743600726 15.590201374143362 15.420364318415523 15.95613420009613 15.97278367727995 15.510589219629765 15.118412948213518 14.702793806791306 14.739803010597825 14.508983138948679 14.893650691956282 15.210794750601053 14.816756760701537 14.713705200701952 14.844651147723198 14.451361242681742 13.907845616340637 13.215971365571022 13.440737128257751 13.8106819242239 14.427111893892288
16.130361109972 16.139859817922115 16.37894321233034 15.672993790358305 15.964109748601913 15.524229034781456 14.880896187387407 14.956780623178929 14.861645777709782 14.176737908273935 13.52793786674738 12.390818372368813 11.549559384584427 11.229861974716187 11.646964028477669 12.203420251607895 12.865013927221298 13.17649818956852 13.280258998274803 13.587948605418205 13.270900882780552 13.179812394082546 13.826807253062725 13.908335007727146 13.80320593714714 13.741610907018185 14.152704365551472 14.251979179680347 13.675183430314064 13.785515762865543 14.124601073563099 14.138779398053885 13.954168818891048 13.729785829782486 13.90966895967722 14.699654867872596 14.900748564396054 15.248864432796836 16.200522668659687 16.75951659679413 17.224091291427612 17.584419026970863 18.314974755048752 19.06329184770584 19.29350897669792 19.664810299873352 20.20811453461647 20.23060843348503 19.33625891804695 19.51868936419487 19.63658720254898 19.710679203271866 19.68938782811165 19.419419020414352 18.706345483660698 18.62370751798153 17.414722815155983 18.276323899626732 18.541897907853127 18.30457180738449 17.41816408932209 16.42869290620553 15.66966977342231 14.850917171739074 14.869044448896506 14.685132819115893 14.483378525753619 15.036918079736127 15.80030726578948 15.572265641122241 15.02159037101437 14.820977263954672 14.668154633284676 15.170931757083258 15.15347935132203 15.155529332886005 15.596129978241127 15.279196631626432 14.99093652177688 15.56792469964627 15.418780625250623 15.832552579098053 16.86245960745151 17.21455726744933 17.746459750829203 18.1598777249897 19.07715243219349 20.52521775479824 21.804234076542517 23.38157868858506 24.5130770973489 25.330683368283353 26.362322028773974 27.700990417254616 28.531498573409827 29.623870053228433 29.97978405440391 29.481690745768095 29.4514296261139 28.88857553524931 29.207805067817652 29.417986421590808 29.776164968831626 29.49257924507312 29.075009169863282 29.199143065775946 29.92040856273564 30.193858560849826 29.515089655022337 29.758964206368713 30.56261900453607 31.24456831387239 31.83911385047021 31.816300171298522 32.25134974807369 31.206906099202172 30.435343843404823 29.717622267635978 28.90008096286015 27.722749228507077 27.36743475150687 27.559007348601465 26.80017707166448 26.542706802992548 25.724756216382687 24.183881323811363 22.697457025801757 22.69937850670176 22.34433092055306 21.644231651960663 20.647850073763813 19.98484311794965 19.72708095961665 19.740851788642157 19.865183389662988 19.41657123416582 19.111302180401577 19.46482741721429 18.89939588175618 18.654194818577956 18.298351919323366 17.578728265163605 17.10078608900773 16.945025324821472 17.61153034865856 18.063020333647728 18.548402711749077 18.034968674182892 17.67670802772045 17.47769683599472 17.601263970136642 17.449067160487175 17.096368074417114 15.45839318074286 14.333408419042826 13.708878010511398 13.74247346073389 14.171051234006882 14.792185602709651 15.482192616909742 15.885332152247429 15.865438655018806 16.57246369868517 15.95762886106968 15.847721602767706 15.66220834851265 15.120103536173701 14.608654724434018 14.073776118457317 14.192348811775446 14.419429432600737 14.52369874343276 14.389070626348257 14.816533047705889 14.926529189106077 14.93377243867144 14.81562894769013 14.639032641425729 15.01167966867797 15.489533711224794 15.839983709156513 16.05925764888525 16.399927586317062 15.907617844641209 16.029787324368954 15.287156710401177 14.96344619197771 14.82807360123843 14.231160040944815 14.283690433949232 14.837743425741792 14.810206568799913 14.57360465079546 14.382140021771193 14.225193690508604 13.441999331116676 13.466032147407532 13.77465259283781 13.937335722148418 13.99652112275362
16.031868271529675 16.695948131382465 17.147781550884247 16.510586477816105 16.11785229295492 15.869085788726807 15.497433487325907 15.675019081681967 15.378151098266244 14.858181509189308 13.981432355940342 13.19660872220993 12.89834663271904 12.695406451821327 12.207088395953178 12.492432296276093 12.977864518761635 13.167627677321434 13.492124229669571 13.849108703434467 14.113296680152416 13.474778048694134 13.703629150986671 13.650261126458645 13.682561181485653 14.280535038560629 14.972223129007034 14.889717071782798 14.306533746421337 14.032190926373005 13.97456869482994 14.341704323887825 14.157182145863771 13.695512898266315 14.292240422219038 14.655284816399217 14.71118121407926 14.473725389689207 15.877021104097366 16.699199080467224 17.11180329322815 17.60826364159584 18.521336317062378 19.310182929039 19.74578306078911 19.804889112710953 20.16587868332863 19.846125841140747 18.96922767162323 18.938084989786148 19.24955114722252 19.39242795109749 19.10938873887062 18.739276975393295 18.06624546647072 17.40762636065483 17.220099717378616 17.457884922623634 17.862803041934967 18.29284206032753 17.35016334257455 16.841426029794047 16.397467305852018 15.760758483198265 15.414886972365471 15.64031462645631 15.973792108325975 15.883894150758579 16.102871224379758 16.018141976293208 15.937292530422388 15.287497416223811 14.965598469387636 15.860911546153718 16.01462357071302 16.032583062655814 16.23865349572745 16.379695778852305 16.256529788349823 16.83846551561668 17.239467248690207 17.169462067628782 18.10055761341207 18.95595159716701 19.698964838854724 20.972685931397326 22.145442632145826 23.387345543301787 24.659911571981112 26.776179607190493 28.26817138198362 29.3516607422111 30.578233269878154 31.77643736892464 32.19801624364704 32.2330234210883 32.65454392382162 32.09616719902394 32.20089798859972 31.85654216947128 31.720686779380422 31.90289193636259 32.24640128359358 31.892264965360884 31.938495475820382 32.312495269256516 32.892275231645975 32.87166033582029 31.203496560299293 30.543795763334188 31.141508599287526 31.91116536751802 32.52168048941571 32.51867696372247 32.93031915393031 32.2352966228145 31.31653879487082 30.840079312588188 30.405889531517047 29.654613071739703 29.901472429052802 29.2437275964995 28.187222791248825 27.558196950170956 26.80596359895119 24.998732741856937 23.648498801022626 22.990296031747057 22.30968551158579 21.918914257592093 21.054546418350625 20.263058874605527 19.737873658657147 19.672228581018608 19.61123762458641 18.72780079006379 18.58336669136694 19.067995913250954 18.52353243323921 18.5848259048856 18.10631137838465 17.55650136429635 17.528897950561785 17.546005727866604 17.418062388896942 18.205156177282333 18.652159944176674 18.55034038424492 18.028281703591347 17.73266650736332 17.47822143137455 17.611698880791664 17.16133788228035 15.577757209539413 14.610667638480663 14.735289299860597 15.15474384650588 15.100830139126629 15.553253497928381 16.08497478067875 16.185134053230286 16.569965220987797 17.50747136771679 17.03695736825466 16.320102028548717 15.9504733979702 15.07653014967218 14.350857362151146 13.71648408472538 13.472238443791866 13.270230554044247 13.215219676494598 13.593338169157505 14.246187563985586 14.47850301861763 14.258920457214117 14.323694128543139 14.713289961218834 15.393053675070405 15.983875058591366 15.787703543901443 16.13147333264351 16.502125337719917 16.10175132751465 15.997071079909801 15.40260599926114 15.166968279518187 15.193711230531335 14.913543777074665 14.970464981161058 15.240507870912552 15.076745138503611 14.724025335162878 14.33150477707386 14.506260473281145 14.383735153824091 14.151501227170229 13.842551484704018 13.69811374694109 13.658356703817844
16.172633841633797 17.043957263231277 17.313169240951538 17.088916674256325 16.71791799366474 16.35720156133175 15.751999709755182 15.826931577175856 15.48107536509633 15.499029848724604 14.618256278336048 13.64270456135273 13.422310128808022 13.247605450451374 12.86333978176117 12.273120805621147 12.348301783204079 13.072586506605148 13.399157077074051 13.427653647959232 13.962834812700748 14.444927405565977 14.326292295008898 14.381968528032303 14.50494596734643 14.809023337438703 15.541528277099133 15.341404471546412 15.101370213087648 14.47609517723322 14.554286375641823 14.30301720276475 14.45993822067976 14.664333248510957 15.189962130971253 15.016286898753606 14.711632914841175 14.186875261366367 15.003392121725483 15.74760815128684 16.514756754040718 17.441948354244232 18.973420411348343 19.106381982564926 19.526862055063248 19.868474900722504 19.412149339914322 18.440723419189453 18.789497315883636 19.096331298351288 19.35101017355919 18.876219391822815 18.932366967201233 18.747361600399017 17.934273406863213 17.602217942476273 16.96663185954094 17.16342844069004 17.803326174616814 17.23610647022724 17.244447335572975 17.253015471674534 16.6596673348665 15.73409713421654 15.538688076966674 16.077230275008507 16.772877130812333 16.878493088726835 16.71463392323986 16.68610209299692 16.499144771226447 16.042039693336136 15.150172224211659 15.767751200975873 16.247455728155206 16.7018106893506 16.79723963587851 16.804029798187447 17.54065029380655 18.224758047129146 18.761541965399243 19.362449191432102 20.13154237686572 21.34339733389732 22.323513961816815 23.676471206152936 25.491513369201286 26.688304688877665 28.423628904487142 30.744348183601346 32.348751225625186 33.432012851088835 34.772154065531446 35.50656607212795 36.2696139001998 36.25146030520662 35.92610600244781 35.74506334656136 36.297846717126916 36.030034516809394 35.53334182010304 35.470181089990916 35.721386617570154 35.12441015144095 35.71080063124497 35.47859724225039 35.097896208369825 35.00144141462056 33.68893144604564 33.11565223503872 32.79781059845181 33.84089124225298 34.39841285628556 34.61435160287902 34.23733448103939 34.507179564379804 34.169085475605286 33.25568419070939 32.59390010389891 31.8986667370025 31.304246719143574 31.42627583454798 30.874707011296632 29.311442544743937 27.533783434741945 26.156273429504463 24.795736978962914 23.523463621451338 22.776598220605997 21.994865817532514 21.838867059783144 21.188486491433917 20.692491567309144 19.66356020105474 18.733876051603346 17.92981094501438 17.93083338032222 18.216019193196647 18.10999020345966 17.879419163070704 17.762398991975576 17.71001906453521 17.414008451650012 17.853146955343025 17.601683735847473 17.648214027285576 18.657117560505867 18.82831871509552 18.42347100377083 17.925885021686554 17.724192291498184 17.594820857048035 17.671923860907555 16.612996459007263 15.545638035982847 15.637062638998032 15.972728580236435 16.245987117290497 16.688764058053493 16.606025397777557 17.075338661670685 17.809343710541725 17.664684131741524 17.118548825383186 16.09843946993351 15.290772970765829 14.040026776492596 13.90713382512331 13.22794821113348 12.990939170122147 12.547183558344841 12.26154237985611 12.648573517799377 12.892353236675262 13.6995143070817 13.865002132952213 14.474543742835522 14.626735216006637 14.930235415231436 15.254206750541925 16.130758747458458 16.84595424681902 16.771399453282356 16.80496070533991 16.45871501415968 16.53306920081377 16.242473646998405 15.926109831780195 15.618260689079762 15.421957913786173 15.356847289949656 15.03058967879042 14.450449012219906 13.848581872880459 13.980724588036537 14.341481029987335 14.606788158416748 14.52164450660348 13.913533240556717 14.33237224817276
17.068452313542366 17.439732626080513 17.678849324584007 17.676457688212395 17.397678047418594 17.35480897128582 17.052512615919113 16.399584710597992 16.265471912920475 16.155925691127777 15.065104169771075 14.29655184969306 14.001968912780285 12.966245412826538 12.995519936084747 12.455560639500618 12.205574735999107 12.806384190917015 12.736751586198807 13.587816506624222 14.408482164144516 14.687610939145088 14.693747470155358 14.703043783083558 14.995952113968087 15.170825771056116 15.710408762097359 15.958754271268845 15.945168100297451 15.010580143716652 15.0 14.747194787487388 14.614679859951138 15.376392854377627 15.462008463218808 14.829174228943884 14.362158626317978 14.408681374043226 14.357591439038515 15.796351432800293 16.543898843228817 17.520915269851685 18.853346407413483 18.894984126091003 18.947136104106903 19.380631148815155 19.374662786722183 18.5422745347023 19.063060730695724 19.404427707195282 19.203869104385376 18.95826146006584 19.02007833123207 19.21856537461281 18.693885952234268 18.312719464302063 17.94281780719757 17.79927894473076 17.581776157021523 17.04365920314714 16.947760368454144 16.886431190832713 16.160609921870325 15.338901265830964 14.969998001800153 15.854859308955126 16.542311215869486 16.995642608747374 17.307680095834687 16.98944214606808 16.514758639150045 16.245928448344294 16.200335567537795 16.491437251102923 16.982248323186536 17.291612681081872 17.36931853543885 17.85370233549607 18.718738048509465 19.301746465410453 20.35489625608665 21.37167902918576 22.38588433163684 24.64805017452439 26.024348092681798 27.652370161990273 29.44702955734836 30.89500642299348 32.670312462567125 35.30856386497009 36.789962941250415 37.895295317381596 38.94220297177546 39.791567978092814 40.07159482372926 40.15425268074441 39.76299773518702 40.359118214576284 40.89613204749885 41.20648351674599 40.66517552306399 40.014207884884975 39.22188826896266 39.07886637679269 38.79459364538429 37.942023997814665 37.29159954815426 37.072845939405845 36.80083729318972 36.234938965771676 36.020229940978986 36.00456073377008 36.67901342616488 36.77584149740197 36.700543485157205 36.97818089616413 37.127487852863915 35.97175713616764 34.83460050339244 33.78034567267012 33.458450089163506 33.31992483298077 31.878914974591577 30.74761005977524 28.642539353564885 27.501693507065813 26.004398967945505 24.386558935539075 23.057121908271725 21.798409000552837 21.411785352915558 21.67552297226482 20.810312235664732 20.124188863295295 18.99629837086885 18.357721418961447 17.677654778683465 17.63176821494821 17.17184462245886 17.635317026765104 17.760903684227532 17.656672580313636 17.115786632927204 17.669648873769177 17.983718254064765 18.428453654050827 18.80559280514717 19.14076253771782 18.430821150541306 18.570194095373154 18.31659235060215 18.308515325188637 17.68840715289116 16.911089792847633 16.035998202860355 16.530827097594738 16.874129623174667 16.885694190859795 16.88486158847809 16.970323473215103 17.068452313542366 17.764620557427406 17.66905702650547 16.890962049365044 16.308777183294296 15.055294943740591 13.796626031398773 13.028332740068436 12.849115133285522 12.524688318371773 12.14285708963871 11.751769334077835 12.310605347156525 12.394364923238754 12.789814621210098 13.285275399684906 13.787600733339787 14.037417322397232 14.379777442663908 15.03300988348201 15.952381007373333 16.714152619242668 16.700811982154846 17.144301384687424 17.197670862078667 16.94578617811203 16.451551727950573 16.040439158678055 15.806158035993576 15.782565046101809 15.163690480403602 14.819354759529233 14.333849530667067 13.291294500231743 13.000102937221527 13.612452931702137 14.518470894545317 14.59434145130217 14.47796842083335 14.76245834492147
17.365408837795258 17.50280164182186 17.648007720708847 17.47877575457096 17.54895508289337 17.683727145195007 17.42155484855175 17.228602543473244 16.54609613120556 16.485859528183937 15.570392198860645 14.613983714953065 14.12431687116623 13.414626158773899 13.34835022687912 13.052806332707405 12.437731102108955 12.470903098583221 12.53880389034748 13.303882665932178 14.346103202551603 14.91711094044149 15.123302824795246 15.363617520779371 15.492989737540483 15.475407857447863 15.966361798346043 16.23202957212925 16.2200815603137 15.557383373379707 15.13430813793093 14.874198460020125 14.895723529625684 15.510441362857819 15.64997423440218 14.778914283961058 14.197081960737705 14.13002036511898 14.113580659031868 15.21811111830175 16.176899783313274 17.244494408369064 18.136868700385094 18.68566744029522 18.675716444849968 19.265489727258682 18.876525163650513 18.362296745181084 18.700747042894363 18.769589066505432 19.084542095661163 18.81394699215889 18.964965641498566 18.931714296340942 19.401052594184875 19.253122061491013 18.8072969019413 17.990830466151237 17.3734762519598 17.114022403331163 16.977806052570315 16.541658433973566 15.861118717817112 15.248927587350199 14.923195417137363 15.312086880937898 16.290433323149312 16.679489652502657 17.444120406670372 17.01205508605264 16.61446542557974 16.84459460476291 18.04139715939805 17.897055112043507 18.202462017637366 18.944490886714416 19.08670893200709 19.88048116253341 20.573233868193483 21.476048391264033 22.422500605916873 23.271678744931915 24.610195299142415 27.634678350910267 29.5807468204166 31.591185397848975 33.470283134862676 34.827311736444685 37.234005571837706 39.58189538891561 41.08726025787511 42.33208517407703 43.32835127226108 44.17401145594159 44.271745679561576 44.06156563375326 44.22291376730813 45.04139572448098 45.581797637879376 46.26426890961223 46.2803075161249 45.16273260625927 44.05656093691334 43.018224525631744 42.211368657341204 41.336499439044246 40.37124668328818 40.14421021250149 39.32185740137084 39.603525398481324 39.11404022300594 38.716322333384426 38.99017812240234 39.215311563444615 39.423929446271934 39.63798903223666 39.727195493389104 38.49892331912112 37.04162102912448 35.80314433498676 35.228795179857194 34.68834401762128 33.027134062301286 31.958782412766627 29.925905792912726 28.632627309026084 27.057017184297834 25.26997342303553 24.30626277980749 22.83916716839614 22.02901683599303 21.665681231917024 21.15237776850091 20.22830537926463 19.60506652384021 18.952075766582173 18.12883628491646 16.61851635430231 16.617706853373374 17.23193408819982 17.71953092672261 17.100131480216653 17.31338171035503 17.67904135373864 18.071214958401086 18.88691782951355 19.432721436023712 19.63906779885292 19.316537976264954 18.739787489175797 19.014596790075302 18.916527181863785 17.983089834451675 17.053266763687134 16.891562193632126 17.36150935292244 17.700907588005066 17.040304765105247 17.180734053254128 16.395633593201637 16.367619037628174 16.82529341429472 17.400556057691574 16.59523643553257 15.667077284306288 14.604367157444358 13.805137127637863 12.862738966941833 12.327098920941353 12.380349487066269 12.258240133523941 11.919399127364159 11.766587421298027 12.32936717569828 12.277222126722336 12.652485743165016 12.918330430984497 13.21986023336649 13.69095180183649 14.130263552069664 15.346088334918022 16.199194751679897 16.698760762810707 17.361848205327988 17.39773727953434 17.340222671628 17.168656289577484 16.085798777639866 15.805356726050377 15.393720287829638 14.654368925839663 14.25169251859188 14.002983011305332 13.169549144804478 12.400321438908577 13.157925568521023 13.804957754909992 14.437320213764906 15.073654123116285 15.129053508862853
16.83547619730234 16.888433173298836 17.345873191952705 17.188290059566498 17.31713868677616 17.42460049688816 17.19897150993347 16.869844794273376 16.61714293062687 16.037764325737953 15.304540442302823 14.918240150436759 13.922246173024178 13.484557271003723 13.234916254878044 12.627377584576607 12.245215326547623 12.264499962329865 12.838815674185753 13.303674794733524 13.718808330595493 14.42181821912527 14.846104611642659 15.391390789300203 15.735656898468733 15.99492508918047 16.405564695596695 16.639841347932816 16.55375249683857 15.898619759827852 15.801126770675182 15.354070980101824 15.87182454764843 16.29196621477604 15.911494083702564 15.502353943884373 14.734246591106057 13.871321193873882 14.084428120404482 14.698750711977482 15.460879700258374 16.703772582113743 17.929047122597694 18.24565775692463 18.35390567779541 18.958003968000412 19.222708493471146 18.490900844335556 18.326748088002205 18.323279097676277 18.34464982151985 18.85056495666504 18.47063608467579 18.90729233622551 19.467043429613113 19.39078778028488 18.914662152528763 18.46614494919777 17.41337285556037 16.965064349164923 16.734144797507064 16.139342106781143 15.62032375981063 15.926589893709318 15.589196513136224 15.738675093899765 15.85992569305436 16.633057885283456 17.362417758359346 17.475244456620516 17.756586906717015 18.572591491814272 19.47232642823381 19.242951209843884 19.48428942593495 20.311338292831383 20.897075219496436 22.2154271980164 22.956491932346076 23.99610773101839 25.038533308154946 25.265182674070275 27.51767079084736 30.132416033450713 32.307040315828864 34.75534890017408 37.18130556911432 38.982788943384456 41.162115881876055 43.18837183064531 45.09591468836324 46.66673764288981 47.39209745911979 48.03084788801618 48.375636635502474 49.21048645563401 49.60021315292807 50.161813271002444 51.301323975318454 51.736706074732446 51.05683060083846 50.64669775206895 49.24206392036496 47.73976228165076 46.70647092271106 45.79980910885628 44.644826836780865 43.531219629807815 42.70514110638525 42.576656021617076 41.73809387079299 41.22473003882279 41.14825175197612 41.32652571032312 41.41938493797731 41.727478088366524 41.83291598332796 41.074940276020854 39.1635313134703 37.494292974858546 36.18091725332475 35.555090964114065 34.528286099756684 33.58389367445876 31.249207236253223 29.9847224072183 28.264352565655685 26.654311105553145 25.53944670897569 24.713575300143223 23.18020962735958 22.12844871526808 21.16450294416183 20.834386888600154 19.484696232806765 18.438904813314046 18.26340548483134 17.098290854695463 16.762328213680245 16.976154939207923 17.006581387256325 17.074328065398948 17.368699423714105 17.563067024900697 18.20450841493085 18.95014831043918 19.662614464759827 19.671764820814133 19.392268359661102 18.691431283950806 18.783467710018158 18.84856626391411 18.134860172867775 17.32608363032341 17.344352155923843 17.25625589489937 17.200899571180344 16.895826011896133 16.95750430226326 16.49550709873438 16.374702863395214 16.691882573068142 16.81166287511587 15.975430011749268 14.96508743497543 14.104029480367899 13.565465100109577 13.338092118501663 12.898970693349838 12.566530108451843 12.4968072026968 12.357488572597504 11.665264293551445 11.575443595647812 11.76980808377266 12.400662526488304 13.192439340054989 12.862449735403061 12.923490330576897 13.560309782624245 14.461348783224821 15.544755142182112 16.816352494060993 17.554111629724503 18.268671333789825 18.5340316593647 18.202121034264565 17.160682752728462 16.19660072028637 15.314735267311335 14.87666139844805 14.39205413684249 13.64618293941021 13.579279817640781 13.021549209952354 12.899472489953041 14.027215875685215 14.282442815601826 15.010441289632581 15.594078227877617
15.458542685955763 16.05905905365944 16.894193440675735 16.97952188551426 17.108345702290535 17.422849237918854 17.01829545199871 16.416790410876274 16.34631771594286 15.849881786853075 15.421303231269121 14.354472700506449 13.568534664809704 13.661246672272682 13.146410174667835 12.66450360417366 12.635655552148819 12.823975011706352 13.439181670546532 13.802691735327244 14.193783849477768 14.753056922927499 15.186129086650908 15.695515964180231 16.21820144355297 16.33083075284958 16.293364986777306 16.705257520079613 16.61068305373192 16.435109451413155 16.188694015145302 15.726500228047371 16.294061243534088 16.695626601576805 15.683053694665432 15.053945439867675 14.687720322981477 13.376147747039795 13.913884945213795 14.548241626471281 15.472258497029543 16.628297343850136 17.809026539325714 18.239811211824417 18.22744846343994 18.809607177972794 19.10849690437317 18.754915595054626 18.71731124818325 18.188868686556816 18.12073051929474 17.982049360871315 17.647235244512558 18.208162263035774 18.475439473986626 18.332643136382103 18.703032061457634 18.86031746864319 17.732643517763407 17.323321280163732 16.514228875670405 15.699367707903013 15.709494343356841 16.377630603351356 16.11908889068431 15.489212559825317 15.263954452450093 15.353639223338984 16.10884630543046 17.57001565206894 19.297711523822922 20.34402958038342 20.772361565463417 20.466210202045737 21.268782246494908 21.996319908375806 22.92133529263446 24.112617712062686 25.005829874249613 26.43706056897764 27.232053075235186 28.346136161508714 31.07943840313814 33.36792057628061 35.9156427359474 38.11745552056169 40.551813776293635 41.93290721051397 43.98813378725883 45.82961510905038 48.61496121320599 50.876175083064716 51.960935160983254 52.59353104197382 53.36339443874317 53.96381490740479 54.966922118260584 55.479801684508104 56.48301229954235 56.613663036969896 56.01430081665219 54.96662335898935 53.96195824246212 52.51980184692649 51.02060049793103 49.878400391846796 48.93556853516821 47.32339710525554 46.19630737019363 45.08277647563221 44.048782835412915 43.10348595305616 42.68040722374313 42.707418203241666 42.622489275449176 43.39085058523958 43.35631480240169 41.91884926109329 40.203931260597784 38.79971543400586 37.715859342840005 36.99947246873468 35.999736377539364 34.540017185838 32.570006427439026 30.95430217885269 29.33726165933473 27.723065754701917 26.37352807514394 25.627107891723043 24.092750005691975 22.372843500511095 21.66912876293601 20.69299222584449 19.305822294008582 18.764718712571444 18.257369055542625 17.731341216039265 17.31546042000726 17.356979449027655 17.295901917175694 17.31449003231981 17.751049508525167 17.949254729766125 18.180387930163267 18.615888240844995 19.20487716794014 18.947564363479614 18.703854605555534 18.138041496276855 18.38306911289692 18.937019258737564 18.647755980491638 17.800698950886726 17.444495782256126 16.764567643404007 16.70830998569727 16.8183771148324 16.85976393520832 16.82372096925974 16.800777353346348 16.236526295542717 15.288776960223913 14.497957359999418 14.241027496755123 14.193928577005863 14.163454938679934 14.22948019579053 13.843189626932144 13.2473848387599 13.063542544841766 12.563000991940498 12.216106653213501 11.89726933836937 11.595921814441681 11.883118003606796 12.951975166797638 13.011401519179344 12.882649227976799 13.444905504584312 14.24955390393734 14.948120430344716 16.834799274802208 17.723494693636894 18.896180391311646 19.06861424446106 19.051186591386795 18.38047094643116 17.164226174354553 15.934503022581339 15.565944537520409 14.691674457862973 13.706667758524418 13.576331734657288 13.137926571071148 13.599939085543156 13.93259558826685 14.451907239854336 15.241922875866294 15.536897610872984
14.68702401034534 15.505492966622114 16.386660486459732 16.957901492714882 16.654113717377186 17.01349228620529 17.166253700852394 16.304630152881145 15.930325761437416 15.579319763928652 15.121061615645885 14.504807330667973 13.610122762620449 13.012697473168373 12.297467663884163 12.33186587691307 12.52687968313694 12.968055680394173 13.476913869380951 13.718138113617897 14.422902446240187 15.046817113179713 15.69489810615778 15.458711888641119 16.043604388833046 16.185721680521965 16.01457294076681 16.531243957579136 16.364644803106785 16.269805021584034 16.236936450004578 15.992668233811855 15.807001143693924 16.279110722243786 14.930968566332012 14.288609046489 13.372903503477573 12.528666481375694 13.370049074292183 14.218760803341866 14.934385030064732 15.952951535582542 16.988026052713394 17.78985433280468 17.60339990258217 17.896936386823654 18.091369941830635 18.187141567468643 18.22164662182331 17.766166403889656 17.2190822660923 17.003589123487473 16.843975111842155 16.952811554074287 16.810010187327862 17.5307909399271 18.25608305633068 18.90077367424965 17.76873087263608 17.476881465313237 16.726833781675378 16.098444635876945 16.10978868570429 15.90374161345388 15.84825989344916 15.43563401254436 14.605327557552329 15.167650223678798 16.075956708838433 18.1481540218284 20.08432031429171 21.64246407319261 22.25110989691087 22.961991213378965 23.804432254982427 24.649885457317062 25.510330513282117 26.862323874892493 27.681597089469015 28.844747422771704 30.07059139463062 31.324607966683505 33.899705923973976 35.64637585904512 38.41217803470034 41.46368982524771 43.38714834879246 44.83189708664501 47.1797767682289 49.58303986058833 52.188397848102305 54.475620130129336 55.946475188790906 56.648019052688184 58.14558999452101 59.220925722439134 60.20096316272448 60.81530521883138 60.97643116970236 60.488042186802325 60.02220128330429 59.6554287444602 58.35220000466256 56.829127484117016 55.80232795185148 54.47658891729578 52.440147011722075 50.37263659774423 49.06512322411506 48.09143514236771 46.622182591477305 45.250110735845986 44.73189487151132 44.64580620107965 44.12147811920958 44.37043582518346 44.51772590703163 43.467540143119514 41.92837584755252 40.619688224528645 39.74085941503217 38.69836518797818 37.62308825408054 35.77430085828676 34.32552391373682 31.989608546407865 30.13448610804471 28.664826394740768 27.68557782009549 26.543579263568233 25.099597283132574 23.266141733911958 22.05406169327941 20.566471593278912 19.797790409214432 19.396345787202318 18.783661792147214 18.317218816094194 17.830275221717688 16.871468540104317 17.000574908711013 17.503099587289988 17.432887576375414 17.694236802794148 18.174490799755354 18.45045635774307 18.739855214953423 18.64883467555046 18.199666813015938 17.519335448741913 17.320761904120445 17.612296789884567 18.112666457891464 17.65727050602436 16.59488584846258 16.103183291852474 16.020284704864025 16.192391328513622 16.22456230223179 16.910413652658463 16.549179889261723 15.635594632476568 14.625079482793808 14.087752271443605 14.30637488141656 14.745365241542459 14.825936914421618 15.006075281562516 14.619276383891702 13.848009444773197 13.053759634494781 12.243427634239197 12.25968673825264 11.791934743523598 11.954672634601593 12.042072415351868 12.236995697021484 13.126869052648544 12.904983088374138 13.60647764056921 14.235108811408281 15.290185371413827 17.05561526119709 17.80793845653534 18.313082233071327 18.877941817045212 18.922502249479294 18.257515355944633 17.530149221420288 16.657053530216217 16.59163523465395 15.697666145861149 14.561211504042149 13.980714976787567 13.75082641839981 13.46067063510418 13.47656786441803 14.429353438317776 14.864991246722639 14.98090869281441
15.0 15.771701876074076 15.671207495033741 16.486995220184326 16.13795019686222 16.116071417927742 16.353173218667507 15.970016196370125 15.803901739418507 15.405841749161482 15.0 14.22143267467618 13.606689311563969 12.513764128088951 12.001172974705696 11.979166567325592 12.476844862103462 12.571625635027885 13.595902808010578 14.176457282155752 15.0 15.878611709922552 16.229470521211624 15.811886731535196 15.938758179545403 16.116071417927742 15.650757607072592 16.060956604778767 15.445074699819088 14.891708535142243 15.0 15.13008157722652 15.145005849190056 15.251896670088172 14.673140980303288 13.883928582072258 13.196573629975319 12.385324090719223 13.012101575732231 14.38680499792099 15.0 15.879131387919188 16.91524386405945 17.556238621473312 17.47417911887169 17.65997014939785 17.771169394254684 17.887562066316605 17.63570286333561 17.424221858382225 16.904762014746666 16.446523927152157 15.935314949601889 15.572786014527082 15.59498643502593 16.543898843228817 17.258407473564148 17.060362547636032 17.10399493571576 16.4365391234283 15.954867947769518 15.498396607924532 15.73646214557399 15.165141881522118 15.528215993740265 15.233409397424795 15.291019253881942 15.909145592409944 17.452187880921645 19.38358162324348 21.511659783402038 23.48822212258887 24.355224502017318 25.804689391443834 26.415202453759456 27.059188348876443 28.056627073681966 28.868681832354184 30.180817888939213 31.38439594311278 32.62479247415589 34.05493846479972 36.10099081491159 38.52418988398872 41.11337705854504 44.3450350353194 46.750778385504184 48.82008278015527 51.35013396820017 53.339243628715856 55.910042508631854 57.973980826939275 59.47823902300445 60.26779182863731 61.79217948496716 62.97710729635694 63.96064827179756 64.95163533659615 64.85798766968956 64.31978798712849 63.74120545226229 63.234084631318936 61.74229834944571 60.19662644119371 59.25609456979146 57.28138402107943 55.7916894713979 53.9015686443591 52.59216005911082 51.15142458839045 49.654322605540486 48.15252800329333 47.05565359670141 46.656004037753235 46.57203282602352 46.15379009175695 46.03508544620822 45.094147667717635 43.151456746588956 42.06693740518576 41.24205103355193 40.164242749275914 38.66232520010825 37.187708067845904 34.86676221995498 32.580981717217306 31.124945668436066 30.150516980774874 28.78795375337803 27.516582441392476 26.33905542785742 24.52909342902596 22.730740933328438 21.21992228676588 20.600898233900594 19.5785681767245 18.921700182269376 18.235899453896934 17.535083844450963 16.802716263279592 17.190599860282504 17.74730215460935 17.644602584211025 17.08422941819358 17.875365783063106 17.831991635255644 17.694706097245216 17.859646528959274 17.619488909840584 17.129122987389565 16.904762014746666 16.97705201804638 17.004419043660164 16.58564519137144 15.80786358565092 15.591517835855484 15.207360894419253 15.116087396163493 15.293912831693888 15.62610263004899 15.0 14.462455976754427 14.042620584368706 13.735148794949055 14.179183468222618 14.408482164144516 14.51238177716732 14.588174298405647 14.560960214585066 14.090469405055046 13.095237985253334 11.9158436357975 11.727587208151817 12.00186476111412 12.268417775630951 12.34002985060215 12.667627483606339 13.072489947080612 13.159174025058746 14.36625687405467 15.0 15.680309906601906 17.211728990077972 17.826058566570282 18.190216943621635 18.612351268529892 18.87364536523819 18.356055691838264 18.094193413853645 17.11559146642685 16.904762014746666 16.288317181169987 14.928739196620882 14.56196584738791 14.229564126580954 13.686755932867527 13.54753464460373 14.168157912790775 14.615937508642673 15.006063310720492
15.655496679246426 15.951597467064857 16.103103384375572 16.07604492455721 15.585285723209381 15.500709749758244 15.836916994303465 16.00942589342594 16.14864405244589 15.39169667288661 15.141659919172525 14.553479896858335 13.454369232058525 12.442571595311165 11.351402252912521 11.403503715991974 11.999269500374794 12.21691220998764 13.275989815592766 14.48358491063118 15.290071796625853 16.418333910405636 16.281810253858566 16.024865806102753 15.84340251982212 16.02982297539711 15.666959770023823 14.841916649602354 14.500815588980913 13.835471123456955 14.236508142203093 14.488926250487566 14.519637487828732 14.105981513857841 14.029802978038788 13.612263388931751 12.754588052630424 12.27585755288601 12.913908138871193 14.274985827505589 15.232748282141984 16.14238902926445 17.417377308011055 17.403867468237877 17.68082208931446 17.65243425965309 17.470987737178802 17.142359241843224 17.66858071088791 16.902708560228348 16.36124722659588 15.818657409399748 15.00977684307145 14.585813898593187 15.097878333181143 15.450444873422384 15.737693812698126 15.612051207964864 15.728064330505248 15.585621796240629 15.128673677261059 14.885490247307315 15.130589199479358 14.826031251510411 15.265771464352397 15.592527131246602 16.328188618399786 17.895199240243393 19.316511229872013 21.394376287033893 23.54402636060419 25.458007209280396 26.61033354896682 28.079635600279087 28.526361970741856 28.924070124588855 29.94416814679139 31.250369855335883 32.71089172667083 33.781871433632816 35.36823691590122 36.771875431671035 38.63331158169143 41.32919779052919 44.42035190528908 47.39608351334931 50.05756122489589 52.76357179400965 54.94548316054163 56.83334180777774 59.10369173053755 61.35569030243037 62.75174625031102 64.10108148041603 64.90896979205222 66.21643190668078 67.2632439887622 68.51478600094708 68.48043225396016 68.14299907908338 67.07653130158172 66.15514948669069 65.12626372019017 63.52502953821883 61.79932310216985 60.35001852889787 59.13439441100658 57.695318671328764 56.24636459339294 54.54820614377279 52.70115654833045 50.68352180893219 49.58847029034575 48.89701196396371 48.67728714146759 48.22856175414663 47.747447708651904 45.97001151225077 45.07875184946454 43.41731452786452 42.2067553659672 41.17152080081931 39.7227059847097 37.82062242209374 35.55824163147419 33.61851422953484 32.19139868535635 31.046663877168065 30.103694843228638 28.79529218669482 27.76898566705127 25.88014875017544 23.671444529317117 22.16453386493965 20.989295615406018 20.2042964254898 19.167124839529013 17.956145565486654 17.37455691597924 16.705811191475554 17.290359038814497 17.770057632321755 17.70921200552048 17.506773935105556 17.610065894631237 17.315854142873714 16.75558280199766 16.814688742160797 16.360349245369434 16.25161785632372 16.108415834605694 15.83891300484538 15.522206872701645 15.721079874783754 14.934005700051785 14.513479862362146 14.146010857075453 14.098171088844538 14.306311737746 13.9684347063303 13.709958717226982 13.491624779999256 13.341698236763477 13.516861572861671 13.782573156058788 14.412811361253262 14.497069548815489 14.568406948819757 14.203638229519129 13.341470696032047 12.808052748441696 12.17757135629654 11.704498305916786 11.988748759031296 12.49834232032299 12.851964309811592 13.131190091371536 13.628860227763653 14.073493536561728 14.73248208872974 15.503800213336945 16.3261291757226 16.51877749711275 17.414718344807625 17.932887822389603 18.829011172056198 19.37935397028923 18.66519123315811 18.600263223052025 17.791097313165665 17.272866144776344 16.88050925731659 15.569156650453806 14.823638498783112 14.356431607156992 14.084821287542582 13.757704831659794 13.841641433537006 14.585429308936 15.173813039436936
15.179993673227727 15.174081344157457 15.698429681360722 15.36985544487834 15.112593483645469 15.641914531588554 15.478693563491106 15.549035388976336 16.022581458091736 16.084034889936447 15.278337998315692 14.8140883538872 13.836421743035316 12.548396810889244 11.540300622582436 11.300958842039108 11.836892142891884 12.304016500711441 13.143797926604748 14.293835945427418 15.521935354918242 16.87012542039156 16.95832036435604 16.636384427547455 15.898272302001715 15.831347946077585 16.35483182966709 15.253016715869308 14.72602947615087 13.934206366539001 14.446978569030762 14.489503372460604 14.382799174636602 13.37592076510191 13.132591769099236 12.831533029675484 12.300005927681923 12.59280189871788 13.560416176915169 14.515161607414484 15.335237067192793 16.251359693706036 16.759373992681503 17.405699864029884 18.20087380707264 17.278792932629585 17.081806138157845 16.70486479997635 17.503294497728348 16.451688297092915 15.983589515089989 15.40342410095036 14.271712861955166 14.280765820294619 14.233004227280617 14.043133333325386 13.939003720879555 14.443885787697198 15.284853984971742 15.06637667814362 14.978492267310891 14.725068893597568 14.939975746045793 15.194973990309297 15.960207969792092 17.09347223063617 17.782547470585715 19.447261211651384 21.254637566619174 23.041016617597844 25.199055289476537 27.123678347774675 28.48801377786308 30.253755837175483 31.06567010389882 31.616706883393288 32.39020451972241 34.20794638450791 35.32309181040882 36.01046512616887 37.78078353346983 39.41999705772231 41.33959009519318 44.163257701548254 47.160292900751486 49.92883779673066 52.40855030662358 55.56158155210244 57.954400861854616 59.90846968225105 61.58164725929194 64.07048747905246 66.18896229353207 67.36674594659465 68.6265317189855 69.92668273350084 71.10717240127744 71.14486742273613 70.82141727059592 71.11175741150713 69.79128502773662 68.910094844904 68.25972855320866 66.77314206126218 65.46120887565928 63.54946088886529 62.07445906653797 60.16702628702741 58.45588751817024 57.134465278962665 55.614989087410315 53.70189736560272 51.827144859886126 50.596446636125414 50.32802865501972 49.84743000963467 49.37660516902844 48.50418725625934 47.64139223397736 45.64347138211801 44.708380150442366 43.09649031167793 41.1284841933375 38.75398751773196 35.9920154605204 34.06246901913132 33.12326534048041 32.286460155832415 31.258892691544236 29.991263166658545 28.91390733385608 27.113189604069078 25.31634954630592 23.211724779982948 22.057346742589566 21.18788108966818 20.341452593385455 19.23305054222819 18.31444547418114 17.266375713464672 17.293390723826764 17.424994357579845 17.131458701982485 17.378606998478652 17.013112251249485 16.605972334735224 16.094121001660824 16.134104132652283 16.120488345623016 15.395265324041247 15.234483378008008 15.223946305923164 15.128479041159153 15.167573117651045 14.340735711157322 14.02294211089611 13.614355511963367 13.52079626172781 13.369290009140968 13.121072798967361 13.058850467205048 12.9047841578722 12.583852708339691 12.936804592609406 13.735153824090958 14.47232622653246 15.005712819693144 14.460498467087746 13.154812417924404 12.41427406668663 12.698011100292206 12.30614148080349 12.091877907514572 12.448616176843643 13.064818382263184 13.083134293556213 13.448963686823845 14.168907254934311 14.874728755094111 15.247917221859097 15.995351560413837 16.866499073803425 17.05566667020321 17.187372520565987 17.448849231004715 17.834676504135132 18.740521520376205 18.720422387123108 18.524356707930565 18.079543858766556 17.561431378126144 17.13706836104393 16.02902825921774 15.007120840164134 14.188671950250864 13.29019971191883 12.601638659834862 13.372963294386864 14.173813965171576 14.682972114533186
13.970891274511814 14.211047273129225 15.285063805058599 15.261311419308186 15.354809062555432 15.679536648094654 15.238907402381301 15.11626590276137 15.607434678822756 15.48293000087142 15.237850919365883 14.471333250403404 13.915073163807392 12.874845340847969 11.63532167673111 11.477809622883797 11.976290345191956 12.688284069299698 13.120847716927528 14.406722690910101 16.01715724915266 16.63981206715107 16.71862307935953 16.471342854201794 15.924682952463627 16.063924245536327 16.492522694170475 15.707485154271126 15.05563226644881 14.048721045255661 14.061280824244022 14.656343143433332 13.791635558009148 12.738160640001297 12.865663915872574 12.740065678954124 12.609553635120392 13.471605218946934 14.352145548909903 14.783414513804018 15.640322417020798 16.252957843244076 16.491151079535484 17.24135711789131 17.717110365629196 17.625727728009224 17.103703916072845 17.05355241894722 17.36382655799389 16.557130627334118 16.082201711833477 15.468062348663807 14.43863209336996 14.4340998865664 14.535953477025032 13.978679403662682 13.320242885427069 13.84587766467567 15.205532281656616 15.319193410063358 14.993732557730532 15.399147982567943 15.773867333463775 16.332065718686756 17.47286197658392 18.985252095760732 20.167772528118835 21.315674032472707 22.739261506532635 24.63498283849804 26.838953995082342 29.41538609470368 31.05011405331496 32.61714942727776 33.5567363054517 34.361161934645686 35.29623424510424 36.57948211741905 37.582496051217305 38.56612977668572 40.84797932194553 42.75372402303593 44.43783094279636 47.10150625551685 49.98308726443471 52.87478292006192 55.293229092971 58.23652567054657 60.50509101670171 62.88527753119503 64.98082279392776 67.11870875292738 69.20697066532257 70.6527383848872 72.26973156587125 73.44944396239987 73.6125266998755 73.21557039771088 72.90527484014832 73.2175936372521 72.64553592960827 72.118917037553 71.88902685097153 70.71939472839776 68.91743634273548 67.33943403470796 65.15326734602522 62.81590583307646 61.294154062752725 59.72024969662514 57.73259627225987 56.33413370808458 55.115934502750235 53.65162819628178 52.385657013830276 51.9413566017923 50.82818166761827 50.19125724168511 49.08961382352954 47.38351776559283 46.14077020655404 44.75978546208713 42.25697816428611 39.489867101116765 37.06068271921568 35.51166841218953 34.07947223023793 33.29166072459919 32.509588917491634 31.358334549886354 29.79223904177111 28.110899325326542 26.213387616776412 24.33168702490051 23.370558847069038 21.857715515288223 20.681300856468823 19.85979650802 19.003629644776016 17.791716753061685 17.47375710111627 17.679133320754797 17.179570010816057 17.110231946148087 16.735655536503096 16.250581278647708 15.647790469229221 15.965810045599937 16.245226375758648 15.902673415839672 15.537745077162981 14.965138704283163 14.899893330875784 14.76196987554431 14.295553006231785 13.418292179703712 13.187684006989002 12.683943584561348 12.625342234969139 12.559763789176941 12.517941668629646 12.379438653588295 12.973768562078476 13.31678006798029 13.625680468976498 13.817608058452606 14.458467867225409 13.927241787314415 13.045672997832298 12.493001818656921 12.351618558168411 12.16616503894329 12.137659192085266 12.852633073925972 13.421173766255379 13.336284756660461 13.772350139915943 14.522990807890892 15.14527827501297 15.616930592805147 16.28379374742508 16.803525611758232 17.217696011066437 17.3350390791893 17.235800474882126 17.565336897969246 17.69380420446396 17.680354937911034 17.22992442548275 17.58287876844406 17.642846927046776 16.92759118974209 15.787007287144661 14.45334518328309 13.149060867726803 12.17100240290165 12.155302092432976 12.948949187994003 13.566826991736889 13.849255442619324
12.864257991313934 13.100426942110062 13.730437718331814 14.283823538571596 14.554224126040936 15.109777352772653 15.257598208263516 15.271777203306556 15.233585005626082 15.33124040812254 14.80287963990122 14.544722763821483 14.264594446867704 13.424607999622822 12.454743012785912 11.859548315405846 12.499232813715935 13.197827786207199 13.247026652097702 14.435770623385906 15.82492958754301 16.751837991178036 16.82336401194334 16.989111006259918 16.329540386795998 16.769338734447956 16.978830322623253 15.892657209187746 15.121534187346697 14.54328783787787 14.55065910704434 14.74273975007236 13.891296498477459 13.522795177996159 12.982460260391235 13.350874856114388 14.193392135202885 14.974820961942896 15.478715524077415 16.133562214672565 16.425707302987576 16.16049036383629 16.27571426331997 17.00559765100479 17.66621321439743 17.77759999036789 17.51214310526848 17.445383593440056 17.520589381456375 17.34819196164608 16.383893117308617 15.690362937748432 15.013681449636351 14.56409222446382 14.339961390942335 14.194941278547049 13.821042212755474 13.428600376524063 14.365393674027855 14.814623602042422 15.063232532498462 15.28784244070784 16.357242728636674 17.45451417914368 18.828581235055278 20.89233453382409 22.589244534727513 23.783364229582737 25.332597649137632 27.023008148753743 29.088632931324142 31.218877739396792 32.81236500083719 34.57026881750659 35.77439339296875 36.73548367047362 37.93663304470372 39.18995999620175 40.0149114314658 41.08552377610903 42.93083125288234 44.73771774427926 46.649684627418836 49.373723673342575 52.784361272824746 55.36187248178257 58.17507139188177 60.99867656944829 63.00854406176203 65.42358073712722 67.22034179903937 69.52339005596009 71.87158596457093 73.59563526832919 74.82982563538233 75.28669276519459 75.50941695790438 74.93918713743194 74.38181008755764 74.60393310830406 74.6999177706651 74.44213955749791 74.94241457933781 73.97942433402976 72.52699613999512 70.07611691565299 67.32028142278914 65.08655240314592 63.65356705258772 61.59149365098014 60.38004255233231 59.12241628583002 58.25656981582458 56.77313849024207 54.902305700988926 53.98956857656386 52.8551617274411 51.59237531249901 50.28673108055188 49.12137105325043 47.288481032400966 45.51318915461446 43.3834872727534 40.74784582966403 38.37071427019238 36.693501531247335 35.623173340697846 34.2000009256321 33.195433503056826 32.30777106902722 30.869177668404852 28.91884587461933 26.86979897257321 25.007428476103353 22.995308360411503 22.005430274285033 21.382282761477597 19.893432062500715 19.415173485941708 18.383953035030952 18.21155590428788 17.58187422005736 17.302177902677617 17.039800577778095 17.000331075080755 16.19793615779379 16.264115273952484 16.41589254140854 16.185547783970833 16.070790365338326 15.640609804540873 15.408572237938643 14.924928252585232 14.344381783157587 14.483479298651218 13.852544389665127 13.024609610438347 12.499577477574348 12.619763910770416 12.53342941403389 12.388098388910294 12.143007963895798 12.893296033143997 12.673712968826294 12.38072544336319 12.691110447049141 12.953322753310204 12.935842350125313 12.64071799814701 12.514128237962723 12.79389001429081 13.037726283073425 12.503754794597626 12.693258449435234 13.267500959336758 13.180904723703861 13.287095054984093 14.64062774553895 15.594962574541569 15.903490986675024 16.28316890448332 16.96340337395668 16.850766465067863 17.51196563243866 17.1098729968071 17.329991161823273 17.5807486474514 16.847284622490406 15.944468714296818 16.38900350779295 16.318642236292362 16.107251532375813 15.709377452731133 14.067127257585526 12.867518216371536 11.938080042600632 11.753037571907043 12.29084998369217 12.886318936944008 13.297628536820412
12.34002985060215 12.387294173240662 12.624787911772728 13.461823426187038 13.95119246095419 14.109053816646338 14.365703389048576 14.150696899741888 14.867977355606854 15.449983896687627 15.098586310632527 14.603582806885242 14.774102820083499 14.119847975671291 13.48178543150425 13.230975978076458 13.63416988402605 13.783714547753334 13.60481321811676 14.863927597180009 15.952381007373333 16.880880743265152 17.283627167344093 17.37698882818222 16.852382495999336 17.190915048122406 17.269150838255882 16.678747683763504 15.523223653435707 14.794862880371511 14.540550587698817 14.126100707799196 13.821470104157925 13.421162590384483 13.342506363987923 14.114786759018898 15.296898130327463 15.974915698170662 16.153793334960938 16.485749445855618 16.543898843228817 16.444825865328312 17.00191207230091 17.44655840098858 17.488378062844276 17.897963672876358 17.97298952937126 17.646878734230995 17.546815127134323 17.70008258521557 16.445312462747097 15.412723934277892 15.141414273530245 14.731821175664663 14.576261071488261 14.114786759018898 13.819677143539716 13.607930055265397 13.714318827201158 14.26802923533404 14.702175401821004 15.681532750927586 17.45500324712839 18.83197874036381 20.69820227082264 22.542732078392095 24.43687292153357 26.02127330730398 27.739152221177452 29.84149263079616 31.47341115527608 33.437285774890576 35.162327030631005 36.6902791884578 37.61233364416882 38.83991170019891 40.5136422113856 41.82357760883165 42.73000458487503 44.12272799898611 45.73246212178924 47.192233671540556 49.36584207093418 52.052364115811265 55.322113510333246 58.00964138111518 60.88434824386661 63.13991722257469 65.58334785701847 67.86694090819607 69.39219293571036 71.38579293858582 73.81893932935893 75.59317890898782 76.4836897786141 76.6922269282981 76.78228188639918 76.89513613277754 76.00744298849472 76.21943066704848 76.16684745832343 76.36640663180914 77.0499385589036 76.79428054243427 74.76972368669753 72.13340193634939 69.74985448425437 67.20863051862109 65.50442912353368 63.829570045786646 63.014710130928606 62.355145193100036 60.28572020661218 58.75351944223495 56.81376857532818 55.65833779697232 54.82960157248761 53.48212070603912 52.087279584364744 50.49970396321755 48.42793658292126 46.38510224504211 44.699372304523145 42.3240171107713 40.1756735188066 38.8664097374898 37.60109544273165 35.95383878383192 34.10561649186199 32.79395153173603 31.071027171423545 29.01709740122051 26.859823031445632 24.4604240724971 22.52709952792894 21.886149077918777 21.186994996861884 20.147187980996282 19.556658697945476 18.645219971399463 17.55958936956937 17.22395825301225 17.03055565978643 17.102534642770074 16.68960313356593 16.301514293925354 16.35102890431881 16.363956816494465 16.004482470452785 16.054938845336437 15.853794626891613 15.814320500940084 15.198203916661441 14.78818042203784 14.960446455515921 14.114990215748549 13.36290255188942 13.06202307343483 13.010583892464638 13.046081811189651 12.34002985060215 11.691508814692497 12.080709412693977 11.609390527009964 11.533299386501312 11.748512014746666 11.750921756029129 12.035388797521591 11.897710785269737 12.414086312055588 12.898065447807312 13.325529657304287 12.866249978542328 12.615127712488174 13.224210888147354 13.177083358168602 13.236149735748768 14.23626383766532 14.921115946490318 15.09314482100308 15.360863087698817 16.055532172322273 16.415862813591957 16.917831301689148 17.29889005422592 17.606077641248703 17.59606808423996 16.345318481326103 15.725945066660643 15.128364586271346 15.065104169771075 14.760348675772548 14.99098152271472 13.983487710356712 12.533783689141273 12.278798371553421 12.275299206376076 12.389998733997345 12.753385081887245 13.378526419401169
