632.8252106904984 656.9747030735016 659.2292487621307 659.400537610054 646.017000079155 628.1123757362366 595.9735289216042 586.4697173237801 571.4050158858299 580.7548612356186 589.1147330403328 600.7479876279831 612.5006750226021 607.1256697177887 605.9371381998062 593.6992391943932 591.8465778231621 578.6561071872711 556.0085847973824 539.9471782147884 564.5201951265335 601.5917733311653 603.3803522586823 607.8509613871574 591.5349423885345 566.9441446661949 542.4693785607815 536.1566431820393 521.3237479329109 484.1012433171272 440.3267689049244 403.72200310230255 390.8884674310684 364.63630199432373 363.54129016399384 388.31187039613724 388.9050707221031 382.73894786834717 398.00629764795303 422.16258496046066 440.7491385936737 475.3311946988106 509.9943559616804 538.4661890566349 536.1716784536839 548.4695136547089 554.2792826890945 526.3009835034609 524.8254463076591 537.2879654169083 540.1022583246231 522.9409728199244 506.58960128203034 501.6978895291686 476.81245766580105 442.3951096832752 417.8927540779114 427.2896721959114 450.6310559809208 428.57105284929276 428.9226531982422 434.40988659858704 423.1190234422684 415.0552898645401 408.0788195133209 412.4918580055237 407.31585025787354 402.9511511325836 412.9571542143822 422.5214198231697 442.1147219836712 469.89847905933857 496.9473679084331 529.9979392439127 530.2121769636869 531.7099690437317 541.0695485770702 524.2325644940138 517.3462480306625 520.6220559775829 519.6239184588194 494.7371166199446 476.5427391976118 478.3433824777603 473.2869789004326 461.3952003419399 450.7020004093647 443.57332959771156 466.1000072956085 467.9441414773464 493.84176544845104 539.3560752272606 575.3057226538658 577.7393579483032 545.4891063272953 518.3362923562527 487.3297121375799 477.30883583426476 485.9160492196679 505.15684206038713
626.9841343164444 638.2812559604645 647.2457051277161 648.9308029413223 637.452706694603 620.4117089509964 593.4079959988594 562.3999051749706 563.6931881308556 578.3130973577499 595.238097012043 609.0687587857246 601.1321991682053 590.3528481721878 580.7004496455193 570.0644850730896 569.5862844586372 558.6506240069866 532.1392342448235 530.4339602589607 563.4920671582222 595.5501273274422 601.6848310828209 601.3099625706673 588.4815081954002 562.3759925365448 529.196223244071 504.7241081483662 513.2063617929816 484.07087847590446 436.5079328417778 405.651219189167 379.4829100370407 344.1712260246277 337.39934861660004 360.9870970249176 378.20494174957275 392.75217801332474 405.07686883211136 420.6554666161537 436.5079328417778 457.67468586564064 488.7287998571992 528.1743258237839 531.1517529189587 535.0322425365448 531.9091267883778 501.0704210726544 515.8618707209826 521.1040433496237 531.7460335791111 531.3960164785385 530.4802637547255 511.9007593020797 493.09964291751385 452.9389888048172 425.6797507405281 436.38966977596283 446.13533467054367 437.7145580947399 436.5079328417778 437.15769797563553 425.0469133257866 407.623827457428 409.30185467004776 414.6205335855484 396.46729081869125 402.0004868507385 405.05853295326233 414.6384075284004 436.5079328417778 468.6378464102745 494.1118936985731 512.4088181182742 518.8078917562962 515.3149804100394 523.6617010086775 507.06308241933584 502.6900456286967 504.1215247474611 500.0 484.22757536172867 488.1589449942112 492.95645812526345 493.4303914196789 468.2539664208889 445.4597868025303 454.8012651503086 460.04369854927063 469.8833879083395 500.0 536.1144281923771 555.0095066428185 565.6441822648048 551.0060675442219 531.7460335791111 498.81231994368136 486.07597313821316 473.95302169024944 493.5989584773779
628.1826943159103 637.1818035840988 627.2918879985809 629.8524886369705 637.5872045755386 618.9547777175903 588.9219120144844 546.7787608504295 543.5167588293552 559.4958886504173 593.0757746100426 611.7573603987694 587.9094675183296 590.1033505797386 560.4490153491497 553.6666586995125 552.5175109505653 531.4607731997967 519.723417237401 540.7379604876041 572.4416598677635 598.9588126540184 621.8020468950272 598.1740280985832 597.0773249864578 561.0294826328754 517.7887137979269 499.0640729665756 471.78745083510876 465.472511947155 427.7346804738045 397.7389261126518 365.72057008743286 338.629350066185 335.73591709136963 347.28534519672394 367.42888391017914 390.4533237218857 392.24932342767715 410.6285274028778 427.8082549571991 446.6521590948105 491.48018658161163 514.5997507497668 523.7910710275173 520.6087082624435 521.772688254714 500.273049576208 515.4969813302159 524.520268663764 537.3470336198807 546.9281412661076 532.2072133421898 513.1364641711116 491.45455937832594 472.4643509835005 450.6473317742348 455.42025193572044 467.534389346838 459.0437188744545 452.7811296284199 445.9993951022625 417.73881763219833 412.2905284166336 423.1940880417824 430.5240735411644 418.47507655620575 411.91671043634415 414.70917314291 418.21087151765823 437.5155679881573 464.3143080174923 485.67101266235113 490.32462667673826 500.4669692716561 495.9652926772833 503.0004163272679 494.82067255303264 485.50489358603954 485.13407353311777 479.16414216160774 471.65914066135883 491.0611240193248 509.52428206801414 478.7822961807251 467.0324735343456 453.66211608052254 469.3108629435301 471.2826684117317 493.34600754082203 510.2399932220578 526.9264206290245 531.4022749662399 551.2893199920654 548.4864376485348 533.038966357708 509.5113469287753 480.0551924854517 456.57195150852203 483.1221792846918
581.7879289388657 596.1965098977089 609.5650866627693 617.4839660525322 616.1933019757271 602.2194996476173 586.5863263607025 548.5887676477432 542.9790653288364 548.2504405081272 584.0919390320778 597.2703024744987 581.2767148017883 587.1539041399956 557.1121126413345 546.8309596180916 535.6309451162815 521.9305027276278 548.835463821888 572.3132118582726 592.0177772641182 594.5654585957527 619.7738274931908 614.8488223552704 606.6074520349503 578.7865072488785 540.623277425766 512.3106623068452 479.24767062067986 458.91115441918373 436.5241751074791 403.89686822891235 374.72964823246 359.1635376214981 335.8428478240967 340.67612886428833 366.0123199224472 384.67787206172943 389.2514631152153 398.3437195420265 426.698662340641 461.5708738565445 496.0912340320647 515.453533269465 516.6355706751347 529.8958886414766 527.6476293802261 531.1401449143887 527.4486541748047 530.0908461213112 561.3993816077709 574.3597447872162 561.6724155843258 527.9148165136576 506.1668832786381 489.4965346902609 494.7729781270027 476.8759701400995 482.21391811966896 466.70902520418167 458.59504491090775 456.18533715605736 434.5286637544632 431.2446191906929 440.4617100954056 450.09782537817955 438.31486999988556 420.30293494462967 428.0737116932869 434.26530063152313 453.6680765450001 470.63141502439976 494.84576703980565 498.90400120057166 510.24418603628874 510.2526983246207 508.85886605829 506.5570785664022 483.4687374532223 479.34678569436073 477.1083164960146 485.53229961544275 476.831067353487 483.0650258809328 477.8225142508745 474.8294726014137 464.9644009768963 471.83575481176376 468.06563064455986 501.78911827970296 508.68773367255926 517.2375831753016 516.2436347454786 521.4017890393734 497.01919010840356 504.121161531657 495.00564159825444 449.9460756778717 438.5888949036598 459.7353860735893
554.4459372758865 557.3861859738827 569.549061357975 577.1401077508926 590.145155787468 598.5999330878258 586.6483673453331 564.2624497413635 559.7121343016624 547.0278896391392 576.9304186105728 595.6036448478699 584.8737880587578 586.6590216755867 558.7093122303486 531.8155996501446 524.2186300456524 532.7173285186291 572.1453949809074 598.2477739453316 598.1131792068481 615.4152378439903 615.9052923321724 618.2262524962425 620.3422993421555 599.5925888419151 555.1879703998566 528.3579714596272 495.79428182914853 459.12374928593636 431.4456507563591 423.5401600599289 394.94121819734573 367.09272861480713 354.36293482780457 354.6889126300812 372.5065290927887 374.46698546409607 390.01451432704926 408.1139266490936 429.9873784184456 463.69969099760056 502.80749634839594 531.5144844353199 541.515726596117 537.0590724050999 545.9101013839245 543.0097579956055 543.3642342686653 551.4578074216843 565.6274855136871 582.8070342540741 582.9673781991005 554.667666554451 524.7740764170885 518.7422130256891 501.4267797814682 475.7792837917805 496.1786922067404 496.0358925163746 470.0728449970484 479.1011903434992 477.11176611483097 475.2846974879503 462.55218237638474 448.18852096796036 426.85528844594955 413.9111638069153 427.19073593616486 441.26052409410477 438.8936050236225 462.6929499208927 487.9589658230543 495.7126029767096 508.9820912107825 528.744000941515 532.1761853992939 533.688772469759 511.1841391772032 507.36998207867146 483.2920804619789 461.3419696688652 455.3813710808754 457.3182798922062 459.07680690288544 478.8156542927027 477.9053349047899 465.0864787399769 465.82961454987526 473.1537848711014 470.1094813644886 483.5515208542347 509.5986211672425 507.71548273041844 462.3918905854225 460.32650023698807 458.9689373970032 440.7702870666981 442.133653908968 449.6915712952614
541.5898337960243 551.4214411377907 544.3285442888737 556.9290183484554 567.5937160849571 579.6769931912422 574.7218430042267 544.509831815958 535.4511849582195 533.9545048773289 550.3430739045143 567.228876054287 585.2169245481491 577.8675228357315 566.5870383381844 551.8205091357231 538.3499376475811 532.2973355650902 555.5219762027264 582.8592330217361 610.0048422813416 621.7364519834518 617.4082532525063 618.5912862420082 626.8500536680222 601.5041321516037 579.0580585598946 543.2284250855446 499.54827295732684 482.25540667772293 468.48665177822113 451.5277370810509 439.6689869463444 403.88771146535873 391.6446641087532 365.43701589107513 360.62243580818176 390.19108563661575 408.6805135011673 416.41874611377716 432.1011081337929 452.4950422346592 495.379454921931 527.8386697173119 536.2124070525169 528.2590724527836 531.9379232823849 532.3652774095535 565.1404336094856 570.718802511692 579.5078426599503 578.9160504937172 579.0657997131348 570.7107335329056 541.8143011629581 533.8100157678127 518.1729067116976 490.2238743379712 487.2182281687856 496.0242840461433 494.003364816308 487.31972835958004 493.9304580911994 486.82056181132793 497.1569038461894 462.62475848197937 432.7278062701225 440.22104516625404 431.8484961986542 439.6452531218529 448.6953914165497 469.3282600492239 475.89265555143356 503.6889207549393 520.1183017343283 525.0255446881056 530.6976530700922 526.9875805824995 515.506649389863 518.5149107128382 503.0954205431044 470.797898247838 445.4355388879776 434.4451352953911 462.1267206966877 476.53636522591114 464.57358077168465 450.3353051841259 458.20852369070053 446.7875249683857 446.97852805256844 469.43187713623047 486.9763720780611 478.90919260680676 428.6528080701828 416.6017696261406 423.6873388290405 422.5568622350693 413.59201818704605 422.2040995955467
544.8908731341362 550.978921353817 551.7059452831745 551.8094599246979 547.5342571735382 543.0876724421978 526.1045508086681 511.4452689886093 491.38965643942356 512.1358446776867 516.4310522377491 537.4055653810501 564.4029602408409 552.4201989173889 556.2414415180683 545.5712229013443 538.1850861012936 539.7945754230022 543.3959662914276 572.3475813865662 588.665671646595 609.6462607383728 626.5082508325577 612.375982105732 611.4582344889641 602.299764752388 579.524889588356 552.8849475085735 502.9975213110447 495.5098987556994 486.85515858232975 475.74002854526043 464.4426368176937 447.3753347992897 427.24116146564484 413.5800302028656 394.1847011446953 404.82088923454285 433.76539647579193 432.41503834724426 443.0803582072258 455.2002474665642 476.0759714990854 512.9523854702711 528.0662104487419 521.5272456407547 522.6383786648512 545.4661063849926 576.8018141388893 586.7499709129333 582.0932537317276 574.645072221756 573.2630416750908 562.2441284358501 536.1570045351982 531.3035286962986 524.0545943379402 508.98048002272844 509.91855561733246 515.3488656505942 512.0287695899606 505.5803535506129 503.3972370438278 511.063477024436 519.0893597900867 482.76628740131855 452.1196782588959 447.6967677474022 444.17232647538185 437.4943748116493 451.8229179084301 459.20664817094803 456.70531690120697 481.8238876760006 496.1264154408127 513.6340912431479 531.4076729118824 538.1752923130989 532.61648863554 533.8485166430473 505.45634934678674 475.6591208279133 453.63185554742813 448.3970068395138 455.3617537021637 454.2241171002388 441.43231958150864 455.35707101225853 433.8565692305565 418.52524131536484 436.5079328417778 455.8912105858326 449.5396725833416 440.25426357984543 410.9814837574959 411.0964834690094 418.88459771871567 395.78601717948914 388.95995169878006 410.84104776382446
542.0053415000439 558.8338486850262 558.926235884428 533.6538068950176 528.1311850994825 507.55819538608193 483.0844011157751 472.1526298671961 446.15259766578674 482.2699297219515 498.3908976428211 518.1038733571768 537.9063412547112 547.0361337065697 533.0553278326988 518.6518505215645 522.6363521069288 533.8800437748432 535.544503480196 547.6078279316425 560.2666884660721 582.7507674694061 612.3924106359482 617.1183958649635 614.755317568779 601.304441690445 578.9929702877998 541.4237007498741 517.1457808464766 502.96506844460964 502.7235432062298 493.4575757943094 472.59989008307457 458.95328745245934 470.58602049946785 463.04814517498016 437.57740780711174 434.7386956214905 447.15579226613045 439.53337892889977 441.3343407213688 459.36356857419014 473.999185487628 491.4420321583748 519.0134067088366 526.3498798012733 535.6689095497131 555.7858236134052 585.1814150810242 588.0081206560135 566.9571757316589 570.1749250292778 572.4342241883278 554.3261654675007 558.751679956913 542.0635268092155 533.9166633784771 524.7672013938427 522.5533712655306 530.3921084851027 521.9418555498123 513.3909024298191 515.0276534259319 529.8248715698719 526.9282069057226 502.72251083515584 468.63072365522385 471.4180026203394 448.36002960801125 437.03631311655045 439.25485014915466 433.7867498397827 440.8712424337864 457.50604197382927 469.3297203630209 491.75519309937954 513.6083215475082 532.8039526939392 545.2263653278351 540.8281274139881 516.5617726743221 498.56514821294695 469.63881328701973 447.64523580670357 450.95355063676834 448.80133122205734 437.044158577919 429.9027770757675 421.854168176651 408.19116681814194 426.22020095586777 435.30987948179245 412.65276074409485 404.2215645313263 399.09786731004715 403.45360338687897 413.0956381559372 385.13611257076263 380.7098716497421 399.536669254303
537.8205105662346 558.0497160553932 550.8820004761219 509.0938787907362 500.2262838243041 487.8550162538886 458.72800797224045 439.68411535024643 441.6251517832279 470.08945420384407 483.0187074840069 493.67372831329703 512.4407298862934 526.4233890920877 516.9395841658115 522.2347248345613 528.8095492869616 531.8078510463238 524.0173116326332 524.7654709964991 538.3152440190315 558.6073435842991 573.6742243170738 600.7506549358368 594.7867631912231 592.6008522510529 587.4926224350929 546.1930558085442 515.0763802230358 506.8886196240783 509.59852896630764 495.7959991879761 489.7997062653303 472.3733738064766 486.192231066525 473.81273470818996 464.8280441761017 451.373927295208 457.5648419559002 439.46104124188423 449.9600790441036 479.43525947630405 489.95957244187593 483.7598614394665 491.3459848612547 511.56674697995186 529.0305633097887 547.5144907832146 572.7442130446434 584.2289328575134 586.2834230065346 579.632818698883 571.0901394486427 564.3173232674599 560.7851594686508 542.7824519574642 521.1269780993462 506.69895159080625 517.0644372701645 518.893338739872 507.6185376383364 505.52359921857715 527.5626797229052 538.7937128543854 530.9655275195837 532.3373600840569 520.3045140951872 495.4987270757556 454.59337532520294 447.9537084698677 437.61447817087173 425.34951865673065 437.03871220350266 444.9045918881893 448.6631043255329 471.95310331881046 491.4710596203804 519.7506844997406 542.0269668102264 537.9337668418884 505.23536279797554 488.89781907200813 465.21298214793205 436.41120195388794 425.046443939209 433.5687607526779 455.05570992827415 432.11133033037186 407.79873728752136 399.095743894577 407.19133615493774 400.49635618925095 402.69071608781815 395.15331387519836 387.8341466188431 405.9161767363548 409.37675535678864 388.2646635174751 384.18640941381454 405.27521818876266
539.694294333458 555.9109635651112 553.1459376215935 512.7342930063605 497.908798744902 469.7471112012863 451.1847570538521 446.95861637592316 458.93407613039017 455.33639192581177 462.0135463774204 470.31281888484955 485.38628593087196 498.1517676496878 505.62681071460247 515.3685072436929 521.8031145632267 542.2139205038548 541.2433184683323 544.0951436758041 550.3263249993324 534.1983065009117 534.0627655386925 564.9002864956856 578.0273526906967 578.2774239778519 577.2328525781631 564.5304769277573 543.8998900353909 512.5369830057025 482.9475060105324 500.8844572585076 506.4302859827876 490.7371215522289 481.55025765299797 469.6945659816265 450.62900334596634 444.61629912257195 454.96295392513275 472.49565459787846 495.2396107837558 510.24697907269 494.44593396037817 465.9617319703102 460.88456362485886 496.7651325277984 525.3470093011856 550.8913174271584 586.4646658301353 606.6119596362114 607.043482363224 605.1278933882713 589.1625583171844 584.4524949789047 575.792521238327 544.8156371712685 519.5006988942623 516.075860708952 517.7003778517246 517.7812837064266 509.5653682947159 516.3403656333685 550.2964407205582 550.3280870616436 530.7411979883909 518.8881475478411 505.92237431555986 473.05887192487717 432.33057856559753 444.75844874978065 436.1787438392639 424.51484501361847 423.00818860530853 424.7325584292412 447.57429882884026 479.9336176365614 472.82400727272034 493.01554448902607 513.8273108750582 521.9599474221468 495.0221301987767 488.58523555099964 472.78767079114914 448.7522952258587 435.69011986255646 446.30569964647293 452.4758718907833 434.7206577658653 424.0131452679634 410.84903478622437 388.9528959989548 385.07599383592606 392.53029227256775 374.79209899902344 360.80048978328705 372.94210493564606 403.36326509714127 408.8970795273781 419.2468076944351 446.786317974329
522.4848594516516 541.2244312465191 540.6937412917614 519.5436794310808 492.57090175524354 465.5226394534111 443.9236968755722 434.04725193977356 459.17878672480583 447.9821212589741 458.87316390872 459.05234292149544 454.31941375136375 450.72153955698013 476.50601901113987 515.0770591571927 519.5653233677149 528.5611171275377 541.2729345262051 549.5034344494343 537.73308172822 531.9540202617645 519.5239689201117 535.4026146233082 546.5220846235752 566.889114677906 562.7646669745445 563.408337533474 551.0914400219917 507.26579688489437 490.6806629151106 478.2904013991356 510.90074982494116 510.0699830800295 481.0684621334076 466.0559594631195 459.02735367417336 463.9984518289566 463.00189942121506 483.9959815144539 505.8132875710726 522.3965663462877 522.6762108504772 504.5757875777781 498.65510559175164 517.354616895318 548.3087562024593 558.6894266307354 599.8238548636436 615.4184341430664 635.5757266283035 626.2945979833603 595.7072302699089 575.4356309771538 562.6883581280708 549.2760017514229 534.0517610311508 532.842144370079 499.4455833802931 494.36445953324437 498.44567757099867 516.2768661975861 553.3130541443825 557.3286786675453 540.0248281657696 510.7606602832675 487.43162117898464 464.6783024072647 452.9438205063343 434.8762109875679 431.41651153564453 430.1776811480522 427.4337738752365 428.8320392370224 444.11036744713783 472.82981127500534 494.42123295739293 488.58372773975134 497.8296959307045 507.11745023727417 482.50208981335163 466.80959686636925 464.524082839489 453.43102142214775 455.8213911950588 433.55100601911545 438.1890371441841 455.38291335105896 443.84538009762764 422.0602810382843 400.6009101867676 380.0496608018875 405.9363603591919 391.47692173719406 387.75403052568436 388.0578875541687 391.0103067755699 429.89014834165573 458.31840112805367 475.7285173982382
500.0 526.6076903790236 537.3780354857445 513.7873999774456 493.3643122203648 480.2827388048172 450.0556141138077 438.9703869819641 444.4540813565254 434.6112981438637 436.5079328417778 442.54955649375916 445.88444754481316 447.7473683655262 445.0361989438534 474.8263880610466 493.7716778367758 499.1582744405605 517.7920199930668 513.6680863797665 500.0 503.34372045472264 510.5894673615694 508.5526593029499 531.1436485499144 537.2023805975914 534.4035625457764 523.710124194622 526.396444067359 519.9097823351622 500.0 488.48033137619495 490.4751814901829 501.71667721588165 499.48999064508826 494.54365065321326 490.10134395211935 469.75081227719784 472.61012718081474 479.52356934547424 500.0 517.2368846833706 523.543918505311 517.046932131052 524.4622528553009 544.8908731341362 572.8573724627495 597.9323834180832 607.6764687895775 623.7291172146797 626.9841343164444 622.1220046281815 596.928596496582 583.8036239147186 560.8944408595562 544.8908731341362 532.7731035649776 520.8809282630682 490.3308628126979 477.46241092681885 500.0 522.0886114984751 528.420040383935 544.3387627601624 528.2767917960882 506.5724207088351 480.07166013121605 456.7556083202362 446.6910548508167 437.276154756546 436.5079328417778 438.0083158612251 443.54185834527016 435.3315159678459 457.7498957514763 480.2827388048172 504.3123345822096 509.9392766132951 525.2810418605804 514.8418582975864 500.0 471.72912769019604 465.13722091913223 468.32966059446335 471.95481695234776 448.5367052257061 446.4878961443901 463.6535421013832 461.2485021352768 445.76968625187874 436.5079328417778 421.43965512514114 405.94644099473953 406.8971052765846 419.2857816815376 411.334328353405 404.88285571336746 444.52863186597824 472.87629917263985 495.5103644169867
499.3331340374425 515.6181734055281 524.4933906942606 519.3574111908674 498.17697308026254 491.1611648276448 463.4126350283623 440.5336007475853 428.2618537545204 413.17202150821686 394.45021003484726 410.9848290681839 428.9128929376602 437.43907660245895 428.1098321080208 448.4395384788513 465.73739126324654 475.0711787492037 498.2431452954188 476.5163753181696 460.7878103852272 470.48485465347767 487.38217167556286 487.0017543435097 494.0278036519885 503.47175169736147 506.8941437639296 495.6717868335545 513.2220545783639 514.2850475385785 506.2303305603564 496.4297425467521 489.2620285972953 492.17655044049025 515.7656781375408 515.6409367918968 520.6270143389702 479.77245785295963 472.19232469797134 456.96140453219414 480.6065075099468 508.1261470913887 526.4763291925192 530.2231591194868 536.2853221595287 561.0524564981461 583.1110402941704 602.214016020298 628.9850473403931 621.9785660505295 619.6514815092087 613.7734577059746 602.4302393198013 579.1183039546013 555.9675432741642 537.4700613319874 515.2545142918825 501.9768907222897 483.45107585191727 464.0469551086426 494.4818513467908 512.569323182106 524.5774947106838 525.5010295659304 516.9506408274174 496.6519654262811 459.7504325211048 437.8637485206127 438.485000282526 444.28670033812523 439.0758164227009 444.47703287005424 445.50951942801476 462.3650088906288 467.072281986475 496.97251291945577 506.3089416362345 532.2374776005745 525.4615433514118 528.284378349781 505.868177395314 477.65045799314976 462.63593062758446 475.7143761962652 465.4366001486778 455.7354561984539 455.58980479836464 455.1345892250538 465.5251353979111 473.1322545558214 466.42086282372475 443.84343549609184 413.4078845381737 411.9594395160675 430.60874193906784 434.98484790325165 433.59679728746414 461.1058421432972 492.6344230771065 506.91759353503585
475.7145419716835 486.11004557460546 490.00794161111116 491.3453934714198 484.3782149255276 465.96942469477654 444.56797093153 411.9229465723038 410.8273759484291 394.4878503680229 396.9152793288231 392.6549553871155 401.3916626572609 408.5322543978691 420.2991724014282 429.85933274030685 450.25987178087234 460.12333407998085 470.7044530659914 466.45549684762955 450.8337825536728 451.7413191497326 453.3156752586365 475.30965693295 471.69397212564945 476.20067559182644 501.44252367317677 510.5983819812536 504.7945831902325 488.41326124966145 494.46965707466006 498.5981989884749 488.12587931752205 498.5989573178813 516.3384173065424 530.3272642195225 533.8773652911186 523.9266026765108 500.8728607208468 488.32256998866796 493.1976869702339 520.9828577935696 540.79395160079 552.9488995671272 571.1905583739281 579.7164738178253 602.0305827260017 619.6370795369148 619.7151094675064 620.4149574041367 620.1035529375076 606.4896881580353 589.7533372044563 560.4924224317074 536.3744907081127 526.9634742289782 520.4848181456327 495.84035063162446 472.4225923418999 467.6397889852524 467.7988439798355 496.0151528939605 504.0743052959442 492.9983587935567 487.8032626584172 469.6072954684496 439.6888054907322 434.2998117208481 424.5533421635628 425.3877028822899 441.84135273098946 433.0306500196457 440.5037425458431 470.8773624151945 486.5143680945039 486.59702856093645 499.40178578253835 516.051983460784 511.6397924721241 516.6982375085354 505.80467749387026 494.0340528264642 483.08731988072395 470.08037753403187 455.2976004779339 454.52722534537315 456.3593566417694 442.32985377311707 459.75083857774734 467.4931839108467 463.0140997469425 444.3095698952675 437.40714341402054 439.84557688236237 439.30159509181976 462.80110254883766 485.65074894577265 491.3151925429702 496.57251103781164 507.2614843957126
441.82849302887917 456.6688723862171 463.2158949971199 458.81258323788643 444.0179616212845 428.0606359243393 423.07358980178833 403.83707731962204 418.55716705322266 412.8842055797577 395.01433074474335 390.2599662542343 370.02335488796234 372.796431183815 393.1140825152397 418.08920353651047 430.31375855207443 438.872616738081 446.87382876873016 448.7035796046257 454.5593783259392 452.28057727217674 440.4664486646652 468.4864357113838 474.8958218842745 496.19875056669116 514.2492149025202 505.35966269671917 490.4222022742033 473.1008689850569 471.5727847069502 472.74712659418583 468.8512161374092 483.3098519593477 516.2897016853094 535.0896902382374 553.3931404352188 551.8296658992767 518.7374800443649 516.2337236106396 522.3030559718609 523.2139304280281 526.6414266079664 553.3152222633362 595.3432694077492 599.2257669568062 606.7037284374237 637.1208429336548 632.8956186771393 643.5050070285797 641.7516618967056 625.9521842002869 602.6153787970543 579.6584263443947 552.3846559226513 532.5638689100742 510.1615032181144 492.4325537867844 476.0607313364744 470.2745731920004 476.4602594077587 487.1570114046335 474.4570069015026 456.15555346012115 452.5739476084709 443.5198940336704 426.8934577703476 429.5499250292778 421.3400036096573 409.833200275898 415.96588492393494 433.7204024195671 435.11921912431717 462.6217857003212 473.1293339282274 482.42954909801483 485.6512900441885 508.0364253371954 506.91509153693914 516.4746418595314 505.1234685815871 488.23356721550226 464.0204794704914 446.23999670147896 439.6350495517254 421.09355330467224 426.61338299512863 432.61346966028214 449.40899685025215 458.1920616328716 452.0202949643135 456.01797476410866 460.49564704298973 456.2949128448963 451.94922387599945 475.32007470726967 508.4118293598294 523.6471723765135 507.88073148578405 510.57050097733736
428.007110953331 425.5601614713669 442.6528885960579 443.990733474493 419.674314558506 407.5067713856697 398.60787242650986 409.48545187711716 417.11997240781784 425.5126044154167 414.403572678566 379.80856001377106 361.7957979440689 360.76247692108154 382.15959817171097 406.17600083351135 430.3041473031044 417.8439825773239 409.1411605477333 419.79068517684937 430.5467829108238 435.9259456396103 416.19111597537994 452.26700231432915 468.90904009342194 477.9444448649883 492.1982469968498 498.5318009275943 496.75275082699955 480.01277446746826 479.6063732355833 466.2263132631779 460.65186336636543 468.9827784895897 510.1301232352853 518.7833737581968 536.1621677875519 565.828412771225 547.9143261909485 529.1269458830357 526.7702843993902 523.2048034667969 533.1250317394733 574.5265409350395 600.8213758468628 609.0350672602654 601.1051461100578 634.7368359565735 644.6158736944199 652.6200771331787 627.3467689752579 602.4572402238846 594.1647067666054 581.0132920742035 570.4355761408806 534.5397554337978 515.3454588726163 506.8840393796563 499.3982953601517 503.50618455559015 501.66707881726325 488.04727010428905 485.7940310612321 476.0014694184065 450.9902335703373 444.2455321550369 433.43688547611237 412.12302446365356 388.2815092802048 385.59507578611374 397.2220793366432 411.3501310348511 407.51244872808456 429.08288538455963 452.803160995245 454.8625387251377 464.36846628785133 464.63536098599434 471.20223566889763 484.3364991247654 492.3443701118231 476.1338122189045 465.0002382695675 449.55019652843475 427.57314443588257 425.2209812402725 417.1076938509941 409.18441116809845 404.12695705890656 426.4692962169647 435.60075014829636 443.411935120821 451.97879895567894 449.9462619423866 461.5420922636986 492.1565130352974 518.9250223338604 530.2790142595768 532.0028774440289 561.1108243465424
431.0515895485878 411.62343323230743 420.0269281864166 417.73882508277893 431.74219876527786 431.058369576931 433.0460801720619 425.93546211719513 441.16392359137535 420.16004025936127 396.019347012043 359.17583107948303 353.53343188762665 361.1523509025574 360.3288531303406 390.242800116539 412.4063774943352 420.1829209923744 410.58211773633957 398.15279841423035 411.334328353405 421.2525710463524 402.57470309734344 431.283175945282 444.34770196676254 460.3208526968956 478.97399216890335 511.70856691896915 527.6949591934681 501.4139354461804 500.0 487.62988951057196 462.82897144556046 480.7369243353605 496.8187401536852 507.9331174492836 526.4134388417006 538.3305139839649 542.7348203957081 522.5391611456871 525.1736119389534 521.4369185268879 533.5678644478321 575.9101361036301 597.6579636335373 595.9184467792511 593.2803601026535 610.3252470493317 646.623283624649 662.8157794475555 626.9841343164444 589.4729271531105 591.6465744376183 594.2928120493889 594.6740433573723 562.5670924782753 534.0228900313377 522.2754329442978 538.37451338768 538.1680652499199 519.7172611951828 510.70148404687643 491.1596551537514 489.14147540926933 465.2455598115921 458.7155282497406 456.09181374311447 419.5648953318596 382.83342868089676 375.2652406692505 386.1607164144516 397.62116968631744 416.9043153524399 413.8469249010086 431.94064497947693 427.445188164711 428.17094922065735 449.3060074746609 467.0279957354069 472.02599234879017 474.8263880610466 473.4892453998327 473.297419026494 435.0094646215439 430.3641840815544 423.3563169836998 408.0027639865875 404.3925926089287 399.716854095459 403.2663181424141 431.0515895485878 456.5522149205208 453.07905226945877 473.3532816171646 479.5913938432932 510.4166669771075 545.1726466417313 539.9173721671104 567.8547769784927 575.2504914999008
428.6755472421646 412.92940080165863 411.52045130729675 432.0232793688774 455.3072713315487 461.8600271642208 465.549249202013 468.56287121772766 452.61723548173904 417.7836775779724 386.6458535194397 353.8926988840103 352.423757314682 350.8608192205429 362.22711205482483 371.9382435083389 409.41252559423447 426.37814581394196 417.34544932842255 400.9074568748474 411.6474911570549 417.9624542593956 408.76077115535736 418.05578023195267 440.426267683506 437.85422667860985 471.7820230871439 523.3528278768063 555.6117482483387 531.6068045794964 532.0903733372688 519.4225627928972 482.80210979282856 484.03812013566494 490.76188169419765 505.8034327812493 524.9323435127735 531.2180668115616 527.2171627730131 526.5474487096071 518.5467805713415 526.9179400056601 524.6079079806805 558.1928603351116 580.6036442518234 589.0736356377602 589.3548205494881 621.852345764637 646.5179473161697 661.133661866188 636.543020606041 595.1064899563789 594.9511602520943 614.0662208199501 594.91116553545 580.4412662982941 556.1029613018036 548.1953769922256 554.4356480240822 557.3448315262794 542.1648249030113 524.3640933185816 526.043776422739 490.5703840777278 476.5309300273657 468.4044010937214 460.32991260290146 438.72691318392754 397.83158898353577 374.6558725833893 380.8218315243721 388.5130435228348 407.7065661549568 405.0057455897331 401.17548406124115 391.2573903799057 394.15597170591354 442.6998570561409 451.72757282853127 467.0303724706173 466.2669487297535 465.85071459412575 457.20604807138443 440.4752850532532 422.95727878808975 415.3892397880554 401.0930433869362 411.4028736948967 394.33444291353226 404.249370098114 427.8343990445137 453.3935524523258 481.7932900041342 500.41791039984673 504.1105691343546 531.5241366624832 554.7793619334698 567.0378878712654 571.5581625699997 575.6237208843231
436.3391473889351 416.49504005908966 432.7845051884651 460.827000439167 487.0283817872405 488.78239654004574 486.46015767008066 487.07442823797464 458.99520441889763 423.21914434432983 397.0908895134926 359.5223277807236 335.08919179439545 336.56296133995056 368.70796978473663 382.8646093606949 405.1290899515152 431.7979961633682 415.38774967193604 402.10044384002686 416.4036586880684 414.0375480055809 407.3222130537033 408.3070084452629 425.70795863866806 433.5421025753021 473.78781251609325 514.4881773740053 543.3526001870632 546.971257776022 552.4282120168209 543.3101169764996 499.8632880015066 499.8914611278451 488.9872958883643 492.5760431215167 524.9546896666288 530.3972270339727 535.6905795633793 529.1753821074963 537.4777466058731 538.6845506727695 553.1143620610237 574.2912217974663 578.8240358233452 604.1843593120575 632.6691210269928 641.3491666316986 665.8546626567841 658.2847833633423 643.0828869342804 635.36836206913 614.9657666683197 623.7958073616028 600.4274040460587 587.779626250267 579.2271867394447 565.202996134758 578.5175561904907 589.1440138220787 561.2896420061588 533.9171625673771 545.9940433502197 517.3050500452518 511.7344595491886 483.69678296148777 450.5075737833977 436.9116723537445 415.93459993600845 392.0280188322067 377.3980289697647 383.00418853759766 385.7147619128227 373.1837570667267 366.5424585342407 374.7015595436096 388.61142843961716 407.5947627425194 434.60582196712494 428.018219769001 438.74675780534744 459.42991226911545 458.00406485795975 449.4077302515507 442.15408712625504 425.81821233034134 400.78940987586975 402.17185765504837 407.331258058548 415.7472923398018 438.73606622219086 464.995838701725 473.9462770521641 516.7502649128437 531.2547758221626 554.7810085117817 574.7876837849617 590.8307135105133 573.0075240135193 583.2550153136253
463.68666365742683 459.9061906337738 466.63782373070717 483.10762271285057 490.77398143708706 476.5029065310955 484.40597392618656 480.25637678802013 458.635576069355 444.31063905358315 411.23712807893753 375.9360983967781 346.8281626701355 351.43473744392395 375.1414939761162 385.7996165752411 403.5603031516075 431.4182922244072 421.3813468813896 418.4601977467537 425.89204013347626 436.39618903398514 428.73410880565643 436.6881772875786 445.65433636307716 458.10766518116 462.58316561579704 485.9328204765916 518.6408348381519 524.1668224334717 540.3606072068214 544.2835874855518 513.0656333640218 517.4366869032383 490.819544531405 504.7682928852737 524.529842659831 517.1361230313778 519.127206876874 534.145213663578 545.590378344059 564.372755587101 580.8512344956398 595.6119149923325 611.2070307135582 649.3574231863022 673.0870008468628 668.6526089906693 683.761477470398 666.6590124368668 667.6454544067383 654.8781543970108 636.9222700595856 634.8847895860672 611.7542833089828 606.516107916832 610.1724952459335 595.3377485275269 596.3597446680069 587.8057926893234 552.3194931447506 528.7440810352564 522.4951468408108 515.8877950161695 524.4210790842772 488.70155680924654 450.7392719388008 419.6130707859993 401.47775411605835 393.3977261185646 377.74986773729324 380.6043788790703 385.8979269862175 379.5798048377037 381.11117482185364 386.32016628980637 384.6917226910591 384.8506733775139 418.43486577272415 415.2199700474739 423.79122227430344 450.2739906311035 452.202420681715 450.6687894463539 453.4425437450409 439.1399659216404 407.25554525852203 412.32915222644806 429.2033836245537 435.5248212814331 440.9351199865341 460.6512822210789 460.6318883597851 511.2159037962556 569.6875974535942 587.3556733131409 600.4117876291275 613.5367974638939 580.4881900548935 563.8612881302834
489.73999079316854 488.77333104610443 483.2902792841196 498.88558860402554 515.2227012440562 489.2577901482582 470.48389352858067 475.73371417820454 475.9762939065695 461.51065453886986 441.41190871596336 394.00044083595276 349.11008179187775 357.74506628513336 369.47907507419586 387.42318749427795 418.83525252342224 425.32292753458023 433.8087663054466 437.69052624702454 431.63707107305527 439.9964362382889 444.6106143295765 445.6484727561474 449.1620101034641 461.0522873699665 479.0942631661892 476.3411618769169 504.1406359523535 519.3630326539278 519.0384648740292 514.32254165411 501.6707823378965 508.31366889178753 505.26114040985703 513.4381363168359 532.8253358602524 539.3676720559597 530.792348086834 529.6076741069555 548.1612794101238 583.7738290429115 619.5369735360146 606.2333509325981 622.5050240755081 648.188516497612 671.6048568487167 688.4056031703949 669.5404797792435 651.2979567050934 667.7524447441101 664.8611575365067 645.7143276929855 636.9525343179703 631.8998485803604 611.2608388066292 599.9041050672531 597.5829213857651 586.7878273129463 582.0563212037086 560.9829388558865 538.0080677568913 521.1324691772461 516.998004168272 511.40898745507 481.4699459820986 446.47353887557983 439.37836214900017 411.0805094242096 419.2727208137512 421.0394248366356 401.6742631793022 404.7158807516098 408.67970138788223 409.8430946469307 413.715161383152 414.72025215625763 406.3260108232498 421.36886715888977 420.3507751226425 440.733190625906 466.11352637410164 449.41652193665504 454.377681016922 449.3594504892826 443.06568428874016 433.258980512619 428.2427430152893 459.5285393297672 468.4041142463684 474.8534020036459 465.759489685297 476.54646076262 512.3204477131367 576.3727426528931 612.1728122234344 606.8029701709747 599.5454713702202 580.3793296217918 585.4853987693787
500.0 498.0783050414175 513.8158835470676 533.7734669446945 526.1922441422939 502.1701389923692 477.853961288929 490.7608684152365 491.07456021010876 477.17002406716347 436.5079328417778 391.7996659874916 359.5535308122635 365.0798052549362 368.759348988533 396.019347012043 426.9312620162964 435.14231592416763 443.47282871603966 450.5710303783417 436.5079328417778 449.8719833791256 454.96635138988495 453.74224334955215 442.4375928938389 455.1091268658638 463.08520436286926 465.3570428490639 473.55478070676327 508.37677624076605 500.0 489.8861516267061 483.61194506287575 484.65237859636545 494.90538565441966 513.1448414176702 534.095749258995 538.5122261941433 532.4124954640865 544.2552678287029 563.4920671582222 596.8635380268097 599.0323722362518 615.9386113286018 625.5223006010056 662.016361951828 693.6573684215546 693.9938813447952 672.7674305438995 641.880139708519 658.7301641702652 661.0213965177536 667.8750962018967 645.8522826433182 634.5122009515762 611.6691455245018 597.979947924614 610.2944985032082 592.5592184066772 574.4317770004272 563.4920671582222 540.8167354762554 514.7911459207535 519.8790896683931 514.6569861099124 480.2827388048172 465.03977850079536 445.5486834049225 446.1973011493683 440.98076969385147 436.5079328417778 419.04228180646896 409.5100536942482 425.8812442421913 422.6493760943413 411.334328353405 410.0007638335228 428.4459054470062 414.1363725066185 413.859523832798 436.5079328417778 452.1302059292793 462.6849815249443 455.6433781981468 433.57715010643005 436.5079328417778 446.98454812169075 444.1385865211487 468.2256169617176 495.0709515251219 500.0 497.16874002479017 511.4244660362601 534.6880741417408 564.925342798233 595.238097012043 601.525254547596 590.2664139866829 573.5939145088196 576.4515921473503
517.2441061586142 531.7154675722122 534.4407260417938 532.4275158345699 526.2713842093945 518.3180347084999 497.98143841326237 496.9793655909598 511.19660679250956 472.8679936379194 432.83528089523315 387.127622961998 365.51256477832794 364.085391163826 377.2977590560913 408.7969735264778 427.352711558342 438.3145272731781 433.984138071537 450.59634745121 445.72386518120766 440.87544456124306 453.60466092824936 455.9702202677727 442.1326145529747 456.3671499490738 470.6595651805401 457.62695372104645 459.12910252809525 475.2505011856556 476.3453993946314 464.4695483148098 460.87951585650444 480.71322590112686 476.5997789800167 497.9744653683156 514.5526630803943 524.6160496026278 532.7802710235119 562.5550970435143 575.147233903408 591.3161188364029 595.4601913690567 617.2231733798981 634.696364402771 659.6459448337555 695.3520625829697 699.0810036659241 678.6554604768753 658.5244983434677 654.2780697345734 674.7579574584961 677.3986369371414 662.8492325544357 645.6908285617828 618.0719584226608 602.1714508533478 618.0807054042816 605.528935790062 591.1121666431427 561.3066591322422 533.4488078951836 512.1524538844824 496.2127013131976 501.5526170609519 479.84914667904377 470.53486853837967 461.55063435435295 475.54183565080166 455.29546216130257 445.1548680663109 439.521387219429 428.838774561882 429.3866753578186 437.8306269645691 422.10614681243896 423.20842295885086 421.42051458358765 411.4677980542183 421.8608886003494 436.2488389015198 453.7832997739315 473.28524105250835 458.94041657447815 439.95701149106026 433.3474114537239 444.67082619667053 455.0796039402485 487.0549254119396 516.7074836790562 521.0160445421934 527.0088985562325 531.6082425415516 563.3153691887856 576.4116644859314 584.1332748532295 598.2297882437706 585.5985209345818 585.1275026798248 567.0619383454323
537.6787036657333 537.9953272640705 545.9647737443447 522.4331263452768 532.1369916200638 517.4743011593819 496.02987291291356 498.5593541059643 495.38819259032607 472.55793027579784 450.93126222491264 413.0272790789604 384.9853128194809 374.32873249053955 388.23213428258896 406.7806750535965 428.8337975740433 439.21660631895065 442.67529994249344 452.93162018060684 442.36336275935173 439.32707980275154 460.89357510209084 463.6111669242382 460.10686457157135 458.05369690060616 471.75681218504906 475.0659726560116 455.83944767713547 459.5171920955181 470.82003578543663 471.29264660179615 465.1389606297016 457.6595276594162 463.65563198924065 489.9884955957532 496.6916188132018 508.29548109322786 540.0174222886562 558.650553226471 574.1363763809204 586.1473008990288 610.4991585016251 635.4430615901947 643.1169658899307 655.4936766624451 673.603817820549 674.353614449501 644.5419639348984 650.6229788064957 654.5529067516327 657.0226401090622 656.3129276037216 647.3139673471451 623.5448494553566 620.7902505993843 580.4907605051994 609.2107966542244 618.0632635951042 610.152393579483 580.6054696440697 545.9952801465988 516.5882762521505 485.4684183374047 482.5720600783825 473.3244366943836 463.9262966811657 480.2116546779871 504.05879877507687 489.9892117828131 465.9011997282505 454.25232499837875 444.9852220714092 458.3679027855396 454.05400544404984 448.7849734723568 459.3340530991554 445.96580415964127 435.0650832056999 454.7177776694298 449.33223724365234 456.291276961565 479.6096310019493 479.75202091038227 470.13034857809544 454.75636795163155 460.1217396557331 487.59053740650415 505.95771754160523 535.0646041333675 550.0174984335899 542.6705330610275 548.2112988829613 564.6311715245247 571.6864988207817 585.1557031273842 579.745464026928 554.5068122446537 545.9992699325085 526.4775417745113
534.3956090509892 556.5316043794155 571.5927183628082 550.3528825938702 537.2617430984974 528.9695262908936 516.5811162441969 522.5006360560656 512.6050366088748 495.2727169729769 466.0477451980114 439.8869574069977 429.94488775730133 423.1802150607109 406.9029465317726 416.41440987586975 432.59548395872116 438.92092257738113 449.73747432231903 461.6369567811489 470.4432226717472 449.15926828980446 456.7876383662224 455.00870421528816 456.08537271618843 476.01783461868763 499.07410430023447 496.3239023927599 476.88445821404457 467.73969754576683 465.81895649433136 478.05681079626083 471.9060715287924 456.5170966088772 476.40801407396793 488.5094938799739 490.37270713597536 482.45751298964024 529.2340368032455 556.6399693489075 570.393443107605 586.942121386528 617.3778772354126 643.6727643013 658.1927686929703 660.1629704236984 672.1959561109543 661.5375280380249 632.3075890541077 631.2694996595383 641.6517049074173 646.414265036583 636.9796246290207 624.6425658464432 602.2081822156906 580.2542120218277 574.0033239126205 581.9294974207878 595.4267680644989 609.7614020109177 577.1795809268951 555.6468181312084 536.493320018053 511.18000131100416 495.88084779679775 500.00866526170284 508.1946970894933 502.8033317066729 506.2215649522841 496.64635956287384 487.98864614218473 461.1882120370865 446.14677131175995 470.8673804998398 469.18726712465286 464.053638279438 466.34362637996674 467.76800602674484 461.92100644111633 477.448184043169 482.3745619505644 465.59568494558334 480.1155626773834 484.56438537687063 476.78673081099987 488.6820502579212 495.0684770010412 503.6988826468587 514.776379801333 556.7788630723953 564.2867088317871 562.4403282999992 573.3361691236496 583.0599889159203 575.1604959368706 554.3915331363678 550.2756349742413 522.3262999206781 520.3984677791595 505.9460853226483
539.0877947211266 568.1319087743759 577.1056413650513 569.6305558085442 557.263933122158 545.2400520443916 525.0666569918394 527.5643859058619 516.035845503211 516.6343282908201 487.27520927786827 454.75681871175766 447.41033762693405 441.58684834837914 428.7779927253723 409.10402685403824 411.61005944013596 435.75288355350494 446.6385692358017 447.5884549319744 465.42782709002495 481.49758018553257 477.5430765002966 479.3989509344101 483.49819891154766 493.63411124795675 518.0509425699711 511.38014905154705 503.3790071029216 482.53650590777397 485.14287918806076 476.7672400921583 481.99794068932533 488.81110828369856 506.3320710323751 500.5428966251202 490.38776382803917 472.8958420455456 500.11307072418276 524.9202717095613 550.4918918013573 581.3982784748077 632.4473470449448 636.8793994188309 650.8954018354416 662.2824966907501 647.0716446638107 614.6907806396484 626.3165771961212 636.5443766117096 645.033672451973 629.2073130607605 631.0788989067078 624.9120533466339 597.8091135621071 586.7405980825424 565.5543953180313 572.1142813563347 593.4442058205605 574.536882340908 570.0678080320358 565.5383616685867 541.1436296999454 505.9198741801083 495.33815914765 509.5968013629317 529.5538567006588 530.4031129926443 519.1595815122128 511.1690051853657 498.75965097453445 478.2434646040201 442.96517223119736 455.4310105741024 464.30766209959984 471.2464548647404 467.7045941352844 459.60356295108795 471.34411707520485 480.58269545435905 482.2191782295704 488.13796043395996 497.79508681967854 505.3698970004916 502.63233738951385 506.5274606458843 526.6737192869186 524.5654564350843 546.5969070792198 573.5876932740211 577.639140188694 575.3395259380341 590.9504592418671 589.1769751906395 592.9780080914497 558.6765520274639 529.286140576005 505.4558487609029 509.3997213989496 494.8796243406832
568.9484104514122 581.3244208693504 589.2949774861336 589.2152562737465 579.9226015806198 578.493632376194 568.4170871973038 546.6528236865997 542.1823970973492 538.5308563709259 502.1701389923692 476.551728323102 466.73229709267616 432.20818042755127 433.1839978694916 415.1853546500206 406.85249119997025 426.87947303056717 424.5583862066269 452.92721688747406 480.2827388048172 489.5870313048363 489.79158233851194 490.1014594361186 499.8650704656029 505.6941923685372 523.680292069912 531.9584757089615 531.5056033432484 500.35267145722173 500.0 491.5731595829129 487.1559953317046 512.5464284792542 515.4002821072936 494.3058076314628 478.73862087726593 480.2893791347742 478.58638130128384 526.5450477600098 551.4632947742939 584.0305089950562 628.4448802471161 629.8328042030334 631.5712034702301 646.0210382938385 645.8220928907394 618.07581782341 635.4353576898575 646.8142569065094 640.1289701461792 631.9420486688614 634.002611041069 640.6188458204269 623.1295317411423 610.4239821434021 598.0939269065857 593.309298157692 586.0592052340508 565.3097927570343 556.9196417927742 549.8182848095894 520.7382794469595 488.6785987764597 469.88945826888084 493.6722042039037 511.7833595722914 523.1441464275122 526.0086208581924 508.3086518570781 486.85515858232975 473.7543389201164 464.7847153246403 465.4754512012005 469.7379544377327 466.893270611763 455.4988257586956 453.97740975022316 463.9110192656517 462.54439651966095 480.2827388048172 498.23576759081334 511.7876147851348 547.4543012678623 545.0449995696545 553.0753955245018 565.4056593775749 569.112740457058 576.348751783371 604.2853072285652 600.6944477558136 596.4765101671219 603.7350371479988 600.5796119570732 576.5124261379242 544.8976531624794 505.3684888407588 502.50169867649674 506.1880750581622 510.4060936719179
578.8469612598419 583.426721394062 588.2669240236282 582.6258584856987 584.965169429779 589.4575715065002 580.718494951725 574.2867514491081 551.536537706852 549.5286509394646 519.0130732953548 487.1327904984355 470.81056237220764 447.1542052924633 444.94500756263733 435.09354442358017 414.5910367369652 415.69676995277405 417.96012967824936 443.4627555310726 478.20344008505344 497.23703134804964 504.11009415984154 512.120584025979 516.4329912513494 515.8469285815954 532.2120599448681 541.0676524043083 540.66938534379 518.5794457793236 504.476937931031 495.80661533400416 496.52411765418947 517.0147120952606 521.665807813406 492.63047613203526 473.2360653579235 471.00067883729935 470.4526886343956 507.2703706100583 539.2299927771091 574.8164802789688 604.5622900128365 622.855581343174 622.5238814949989 642.1829909086227 629.2175054550171 612.0765581727028 623.3582347631454 625.6529688835144 636.1514031887054 627.1315664052963 632.1655213832855 631.0571432113647 646.7017531394958 641.7707353830338 626.9098967313766 599.6943488717079 579.1158750653267 564.9813637137413 555.0400130450726 535.2086238563061 504.5566209591925 476.5006620436907 458.6404003202915 465.36849811673164 492.65910126268864 501.3968263519928 518.2119756937027 496.40883691608906 477.41509415209293 474.98253360390663 497.0917124301195 474.1395227611065 467.25059673190117 475.717531517148 459.0458609163761 463.557954877615 464.42417055368423 472.10061736404896 486.833275295794 501.61966891027987 515.4926124960184 563.1831288337708 575.2648413181305 589.0523716807365 599.669061601162 596.7238768935204 607.8087165951729 622.6718202233315 616.4545938372612 608.1064194440842 600.2017259597778 591.0267010331154 556.5385669469833 512.1789062395692 486.8531161919236 493.2235972955823 499.3561530136503 517.8706739097834
561.182539910078 562.9477724432945 578.1957730650902 572.9430019855499 577.237956225872 580.8200165629387 573.2990503311157 562.3281598091125 553.904764354229 534.5921441912651 510.15134807676077 497.2746716812253 464.07487243413925 449.48524236679077 441.16387516260147 420.91258615255356 408.1738442182541 408.8166654109955 427.96052247285843 443.4558264911175 457.2936110198498 480.72727397084236 494.87015372142196 513.0463596433401 524.5218966156244 533.164169639349 546.8521565198898 554.6613782644272 551.791749894619 529.9539919942617 526.7042256891727 511.8023660033941 529.0608182549477 543.0655404925346 530.3831361234188 516.7451314628124 491.1415530368686 462.3773731291294 469.48093734681606 489.95835706591606 515.3626566752791 556.7924194037914 597.6349040865898 608.1885918974876 611.7968559265137 631.9334656000137 640.7569497823715 616.3633614778519 610.8916029334068 610.7759699225426 611.488327383995 628.352165222168 615.687869489193 630.2430778741837 648.9014476537704 646.3595926761627 630.4887384176254 615.538164973259 578.34642380476 557.7524863183498 543.3057211339474 514.3779795616865 488.4067149832845 490.4574267566204 471.66554629802704 469.8396101593971 467.9669700562954 488.9216981828213 503.7942258641124 496.97021464817226 490.1429070159793 490.94231985509396 496.9287230633199 466.98779985308647 455.9541754424572 460.66245809197426 459.10630002617836 479.0539536625147 479.19366508722305 491.2175415083766 500.1360142487101 489.90579694509506 520.21149918437 552.4126254022121 567.1483725309372 588.9774933457375 611.7917746305466 607.7666357159615 611.5457713603973 613.1407991051674 615.0887235999107 607.3148101568222 576.7521038651466 551.1715039610863 518.0900134146214 507.6804053969681 488.4435189887881 484.7273612394929 516.9941484928131 535.1414419710636
515.2847561985254 535.3019684553146 563.1397813558578 565.9840628504753 570.2781900763512 580.7616412639618 567.2765150666237 547.2263470292091 544.8772571980953 528.3293928951025 514.043441042304 478.48242335021496 452.2844888269901 455.3748890757561 438.21367248892784 422.150120139122 421.18851840496063 427.4658337235451 447.97272235155106 460.0897245109081 473.1261283159256 491.7685640975833 506.2043028883636 523.1838654726744 540.606714785099 544.361025094986 543.1121662259102 556.8419173359871 553.6894351243973 547.8369817137718 539.6231338381767 524.2166742682457 543.1353747844696 556.5208867192268 522.7684564888477 501.7981813289225 489.5906774327159 445.87159156799316 463.7961648404598 484.9413875490427 515.7419499009848 554.2765781283379 593.6342179775238 607.9937070608139 607.581615447998 626.9869059324265 636.949896812439 625.1638531684875 623.9103749394417 606.2956228852272 604.024350643158 599.4016453623772 588.2411748170853 606.9387421011925 615.8479824662209 611.0881045460701 623.4344020485878 628.677248954773 587.3147994279861 566.2540718913078 529.4258408248425 492.7311548963189 483.92724990844727 497.52770620398223 480.8067511767149 452.3963965475559 438.31712380051613 434.6340596675873 440.2719475328922 463.4566158056259 489.43690303713083 493.57575410977006 479.3506059795618 446.26013562083244 448.0361044406891 450.3201059997082 459.57382768392563 478.3833082765341 484.84679963439703 505.8304690755904 495.16444094479084 500.90787856606767 540.8820658922195 561.5985356271267 585.2646753191948 594.4961309432983 612.5933304429054 587.4606370925903 583.6020857095718 568.3054700493813 584.4839811325073 594.2640081048012 575.4980966448784 534.7115322947502 502.73860106244683 486.68020963668823 489.92655985057354 485.46658735722303 513.255056925118 526.5073031187057
489.5674670115113 516.8497655540705 546.2220162153244 565.2633830904961 555.1371239125729 567.1164095401764 572.2084566950798 543.4876717627048 531.0108587145805 519.3106587976217 504.0353871881962 483.4935776889324 453.67075875401497 433.75658243894577 409.91558879613876 411.06219589710236 417.56265610456467 432.26852267980576 449.23046231269836 457.2712704539299 480.7634148746729 501.5605704393238 523.1632702052593 515.2903962880373 534.7868129611015 539.5240560173988 533.8190980255604 551.0414652526379 545.4881601035595 542.3268340528011 541.2312150001526 533.0889411270618 526.9000381231308 542.6370240747929 497.6989522110671 476.2869682163 445.7634501159191 417.6222160458565 445.6683024764061 473.95869344472885 497.81283433549106 531.7650511860847 566.2675350904465 592.9951444268227 586.779996752739 596.5645462274551 603.0456647276878 606.2380522489548 607.3882207274437 592.2055467963219 573.9694088697433 566.7863041162491 561.4658370614052 565.0937184691429 560.3336729109287 584.35969799757 608.5361018776894 630.025789141655 586.1392468214035 565.9418106079102 530.7083334773779 499.81809631572105 490.60276709496975 474.56800006330013 464.07173201441765 442.30248406529427 401.78217738866806 397.33365178108215 397.004596889019 428.0786067247391 456.70777559280396 473.097151145339 464.5562022924423 462.8806933760643 463.7542553246021 468.93565356731415 475.5010362714529 499.3087367620319 502.3119682446122 504.4154222123325 506.391862872988 506.8475063890219 537.2174680233002 534.6707813441753 561.2196810543537 598.3500182628632 599.4093343615532 569.5381611585617 569.0253153443336 561.9580708444118 569.7564482688904 572.315014898777 556.1067312955856 503.74163361266255 474.60695542395115 480.5814754217863 491.72788858413696 496.40439660288393 499.6182090835646 496.2405585683882
500.0 525.7233958691359 522.3735831677914 549.5665073394775 537.9316732287407 537.2023805975914 545.1057739555836 532.3338732123375 526.7967246472836 513.5280583053827 500.0 474.04775582253933 453.5563103854656 417.12547093629837 400.03909915685654 399.3055522441864 415.8948287367821 419.05418783426285 453.1967602670193 472.5485760718584 500.0 529.2870569974184 540.9823507070541 527.0628910511732 531.2919393181801 537.2023805975914 521.6919202357531 535.3652201592922 514.8358233273029 496.39028450474143 500.0 504.3360525742173 504.8335283063352 508.39655566960573 489.1046993434429 462.7976194024086 439.88578766584396 412.84413635730743 433.73671919107437 479.56016659736633 500.0 529.3043795973063 563.8414621353149 585.2079540491104 582.472637295723 588.665671646595 592.3723131418228 596.2520688772202 587.856762111187 580.8073952794075 563.4920671582222 548.2174642384052 531.1771649867296 519.0928671509027 519.832881167531 551.4632947742939 575.2802491188049 568.6787515878677 559.6520118415356 526.6280621290207 500.0 474.46293011307716 472.3885804414749 443.72161105275154 445.5207735300064 416.790671646595 389.40396159887314 379.0145814418793 388.26411962509155 410.5289950966835 436.5079328417778 464.54526111483574 464.0197865664959 482.33988508582115 476.21432505548 474.8263880610466 484.66742411255836 489.6599017083645 494.8636959306896 500.1447531976737 500.0 507.7933156862855 516.6866928339005 533.5599891841412 548.4479032456875 588.665671646595 604.9366220831871 586.7750346660614 579.9532979726791 557.5307421386242 563.4920671582222 564.744658768177 533.1521183252335 479.3564174324274 458.0119401216507 456.2251977622509 467.97874197363853 484.1778501868248 478.2826267182827 476.37077793478966
521.8498893082142 531.7199155688286 536.7701128125191 535.868164151907 519.5095241069794 516.6903249919415 527.8972331434488 533.6475297808647 538.2881350815296 513.056555762887 504.72199730575085 485.1159965619445 448.47897440195084 414.75238651037216 378.38007509708405 380.1167905330658 399.97565001249313 407.230406999588 442.5329938530922 482.786163687706 509.6690598875284 547.2777970135212 542.7270084619522 534.1621935367584 528.113417327404 534.327432513237 522.2319923341274 494.7305549867451 483.3605196326971 461.1823707818985 474.55027140676975 482.96420834958553 483.9879162609577 470.1993837952614 467.6600992679596 453.7421129643917 425.1529350876808 409.195251762867 430.46360462903976 475.83286091685295 507.75827607139945 538.079634308815 580.5792436003685 580.1289156079292 589.360736310482 588.4144753217697 582.3662579059601 571.4119747281075 588.9526903629303 563.4236186742783 545.374907553196 527.2885803133249 500.3258947690483 486.1937966197729 503.2626111060381 515.0148291140795 524.5897937566042 517.5895262509584 510.2802012115717 494.4921596907079 468.39168667793274 449.63327422738075 447.42730632424355 424.4668036699295 416.2639304995537 392.8759843111038 378.95598262548447 388.90302181243896 385.58773696422577 406.0514122247696 423.9319711923599 452.49347761273384 460.81849560141563 480.0650216639042 471.3561087846756 462.10137382149696 470.3065622597933 478.69326919317245 484.9071092903614 488.45184966921806 501.50959950406104 511.06718089431524 510.4291485622525 533.7913073599339 564.6661445498466 593.1687951087952 610.9720543026924 606.1503663659096 581.7345231771469 554.4241033494473 545.4867519438267 550.8940629661083 511.8255903944373 476.6439590603113 434.2053160071373 435.9951615333557 451.37299969792366 483.1236694008112 480.18910363316536 472.5334085524082
505.9997891075909 505.80271147191525 523.2809893786907 512.328514829278 503.75311612151563 521.3971510529518 515.9564521163702 518.3011796325445 534.0860486030579 536.1344963312149 509.27793327718973 493.80294512957335 461.2140581011772 418.27989369630814 384.6766874194145 376.6986280679703 394.56307142972946 410.13388335704803 438.1265975534916 476.4611981809139 517.3978451639414 562.337514013052 565.2773454785347 554.5461475849152 529.9424100667238 527.7115982025862 545.161060988903 508.4338905289769 490.867649205029 464.47354555130005 481.5659523010254 482.9834457486868 479.4266391545534 445.864025503397 437.7530589699745 427.71776765584946 410.00019758939743 419.760063290596 452.01387256383896 483.83872024714947 511.17456890642643 541.7119897902012 558.6457997560501 580.1899954676628 606.695793569088 575.9597644209862 569.3935379385948 556.8288266658783 583.4431499242783 548.3896099030972 532.7863171696663 513.4474700316787 475.7237620651722 476.02552734315395 474.4334742426872 468.10444444417953 464.6334573626518 475.9768098592758 492.87422792986035 474.3381440639496 460.2976031601429 440.9244954586029 433.46114456653595 415.36806523799896 401.9049182534218 395.68760991096497 372.1323013305664 373.32049012184143 381.6368281841278 388.7289986014366 408.201701939106 432.49017000198364 444.87445428967476 472.8201497346163 477.32712142169476 472.8686548769474 464.4080549478531 485.11378560215235 481.170242652297 471.34065441787243 491.5560558438301 500.2616272540763 504.9724201671779 539.1217097640038 563.3619278669357 579.5638933777809 581.2966376543045 587.5988900661469 574.3024423718452 555.5943995714188 535.797368735075 532.2562344372272 515.3562063351274 472.93613478541374 449.7033394873142 447.6451873779297 465.37842601537704 476.1512279510498 471.4524429291487 502.3826833348721
465.69637581706047 473.70157577097416 509.5021268352866 508.7103806436062 511.82696875184774 522.6512216031551 507.9635800793767 503.87553009204566 520.2478226274252 516.097666695714 507.92836397886276 482.3777750134468 463.83577212691307 429.16151136159897 387.844055891037 382.59365409612656 399.2096781730652 422.94280230998993 437.36159056425095 480.22408969700336 533.905241638422 554.660402238369 557.287435978651 549.0447618067265 530.8227650821209 535.4641415178776 549.7507564723492 523.5828384757042 501.854408881627 468.29070150852203 468.7093608081341 488.54477144777775 459.7211852669716 424.6053546667099 428.8554638624191 424.6688559651375 420.31845450401306 449.0535072982311 478.4048516303301 492.7804837934673 521.3440805673599 541.7652614414692 549.7050359845161 574.7119039297104 590.5703455209732 587.5242576003075 570.1234638690948 568.4517472982407 578.7942185997963 551.9043542444706 536.0733903944492 515.6020782887936 481.28773644566536 481.1366628855467 484.53178256750107 465.9559801220894 441.9087581336498 453.77959683537483 488.51858265697956 480.8999374508858 458.76217633485794 457.1985639631748 440.59817492961884 418.3746352791786 407.60498493909836 405.749075114727 387.31592893600464 366.1893457174301 359.2493385076523 369.88238990306854 390.697605907917 435.0409433245659 454.09782230854034 474.8143460601568 481.24016262590885 475.69448314607143 466.9804573059082 471.3815562427044 468.83776783943176 468.67021173238754 502.4431843776256 523.1289528310299 529.2343106120825 557.1331791579723 574.2488279938698 577.6007622480392 572.3052844405174 568.8272044062614 554.1209764778614 560.8263537287712 556.4393885433674 535.1216085255146 518.7445804476738 488.7480139732361 484.36472937464714 475.38397647440434 463.23180198669434 463.5925777256489 474.87296536564827 509.7307497635484
428.8085997104645 436.6808980703354 457.6812572777271 476.12745128571987 485.1408042013645 503.65924509242177 508.5866069421172 509.0592401102185 507.78616685420275 511.041346937418 493.4293213300407 484.82409212738276 475.4864815622568 447.4869333207607 415.15810042619705 395.31827718019485 416.64109379053116 439.9275928735733 441.5675550699234 481.19235411286354 527.4976529181004 558.3945997059345 560.7788003981113 566.3037002086639 544.3180128931999 558.9779578149319 565.9610107541084 529.7552403062582 504.05113957822323 484.77626126259565 485.0219702348113 491.42465833574533 463.0432166159153 450.7598392665386 432.7486753463745 445.0291618704796 473.1130711734295 499.1606987314299 515.9571841359138 537.7854071557522 547.5235767662525 538.6830121278763 542.5238087773323 566.853255033493 588.8737738132477 592.5866663455963 583.7381035089493 581.5127864480019 584.0196460485458 578.2730653882027 546.1297705769539 523.0120979249477 500.4560483212117 485.4697408154607 477.99871303141117 473.1647092849016 456.928089261055 438.0578584969044 459.7587324678898 463.2396847009659 457.34652504324913 434.5480799674988 427.6139438152313 413.5843366384506 402.7290344238281 409.79355573654175 402.49457210302353 377.9318407177925 372.3684996366501 376.07594579458237 392.27278530597687 420.84021121263504 437.2716173529625 463.30399438738823 472.85356000065804 467.10437908768654 465.5604735016823 470.09206749498844 462.51899749040604 467.59744733572006 492.07618180662394 512.9232183098793 537.5811196863651 558.0626353621483 580.2226886153221 570.2332258224487 585.1215645670891 581.724151968956 561.4802353084087 572.033204138279 552.7187325060368 533.6731486022472 517.0549135655165 508.6968392133713 502.3066168650985 485.5885058641434 476.85556299984455 462.27360516786575 468.3636762201786 498.6977350199595
411.334328353405 412.9098057746887 420.8262637257576 448.72744753956795 465.039748698473 470.30179388821125 478.85677963495255 471.68989665806293 495.59924518689513 514.9994632229209 503.28621035441756 486.7860935628414 492.4700940027833 470.66159918904305 449.3928477168083 441.0325326025486 454.472329467535 459.4571515917778 453.49377393722534 495.46425323933363 531.7460335791111 562.6960247755051 576.1209055781364 579.2329609394073 561.7460831999779 573.0305016040802 575.6383612751961 555.9582561254501 517.4407884478569 493.1620960123837 484.6850195899606 470.87002359330654 460.7156701385975 447.37208634614944 444.75021213293076 470.4928919672966 509.8966043442488 532.4971899390221 538.4597778320312 549.5249815285206 551.4632947742939 548.1608621776104 566.7304024100304 581.5519466996193 582.9459354281425 596.5987890958786 599.099650979042 588.2292911410332 584.8938375711441 590.002752840519 548.1770820915699 513.7574644759297 504.7138091176748 491.0607058554888 485.8753690496087 470.4928919672966 455.6633196771145 442.7108131349087 438.28075379133224 444.07400861382484 431.0515895485878 420.2851727604866 427.2686541080475 413.8808324933052 409.78363901376724 403.3944234251976 397.16070145368576 380.9899762272835 378.16424667835236 393.4124559164047 399.3055522441864 422.3157688975334 441.6666068136692 453.1751200556755 448.17520678043365 451.0134756565094 465.4429443180561 467.2553203999996 460.27325466275215 479.61648367345333 500.0 510.3271212428808 536.3205000758171 562.5759586691856 586.0645994544029 588.9035165309906 601.4193892478943 587.901197373867 583.2099914550781 586.7805257439613 563.4920671582222 537.439126521349 532.1177504956722 527.3047611117363 518.9832281321287 498.15683520864695 486.6420542821288 491.9461766257882 480.30192218720913 508.6062904447317
397.44559675455093 384.54005122184753 406.7481905221939 415.9095138311386 427.9830679297447 433.00386518239975 448.0603262782097 452.97516137361526 483.9473217725754 510.6656150892377 511.8557494133711 505.4703080095351 505.6115281768143 499.4233588804491 476.67053155601025 480.17353005707264 480.0845831632614 472.42796421051025 470.42923979461193 511.02406065911055 544.1610217094421 589.6973237395287 591.5222615003586 586.5126699209213 581.4157128334045 592.6207825541496 592.2418907284737 567.4008056521416 535.7799679040909 498.0411003343761 482.0871166884899 468.33303198218346 458.24893191456795 448.4119080007076 463.6891297996044 501.0931562865153 534.0180620551109 549.4243130087852 571.299746632576 563.9030113816261 559.6012398600578 558.6028508841991 580.4893672466278 586.318850517273 573.4496712684631 581.0436084866524 579.1040286421776 585.0208178162575 592.5301536917686 592.0887812972069 572.0152482390404 531.4059518277645 509.67296212911606 508.14045313745737 491.17966275662184 475.46206787228584 463.27517181634903 450.12060180306435 434.95260179042816 422.33384400606155 420.45001685619354 423.8252267241478 445.03045827150345 454.98139783740044 425.830215215683 423.38860034942627 403.52682769298553 387.99188286066055 396.3785320520401 406.9596827030182 413.8285666704178 423.38020354509354 449.11522790789604 461.3756649196148 443.5775354504585 438.32555413246155 461.64584159851074 462.3618945479393 476.374926045537 486.6035748273134 495.9446513094008 501.76161574199796 535.9069295227528 573.1192603707314 587.7665653824806 602.640874683857 615.9750744700432 605.2817851305008 604.8747301101685 582.175649702549 558.5386641323566 538.6595502495766 549.254197627306 528.6920238286257 509.7204064950347 497.4766010418534 493.4705989435315 491.8350111693144 492.092015221715 511.5969544276595
386.1641734838486 382.3092058300972 396.36512845754623 393.86095106601715 410.53246706724167 411.806158721447 440.5706413090229 464.5954258739948 478.7210486829281 503.03007918410003 510.13556588441133 511.78803388029337 509.4861425459385 496.38377921655774 478.789784014225 485.736814327538 500.0510364770889 495.1608399860561 472.2724575549364 490.36950152367353 525.9967111051083 560.9666369855404 593.6208888888359 596.9167575240135 608.9253649115562 596.8212187290192 592.7737504243851 578.1399086117744 547.7714687585831 511.57101429998875 510.3253033012152 503.9598513394594 483.9121401309967 470.276502892375 469.63867358863354 504.1492818854749 531.4479395747185 556.804995983839 580.3687199950218 587.0204493403435 584.8696157336235 604.9267277121544 588.9288559556007 570.4918727278709 581.0140296816826 569.1679194569588 563.6366382241249 576.2336105108261 586.9954153895378 597.4688827991486 571.8716233968735 540.1620306074619 533.9800752699375 525.262488052249 503.04060289636254 497.87671072408557 475.2122350037098 445.22347673773766 441.68247655034065 437.777291983366 449.259988963604 466.94571897387505 463.4314551949501 480.1085125654936 486.65902111679316 450.8195035159588 428.163543343544 412.4918505549431 419.3935617804527 413.4714677929878 415.48120230436325 407.56043791770935 420.91551423072815 445.67475095391273 456.462349742651 463.1712846457958 476.4485452324152 472.2590260207653 486.2239370122552 496.1662550922483 490.80536887049675 474.57654774188995 519.280195236206 568.7831491231918 589.6568447351456 593.1201502680779 611.4330962300301 607.215516269207 600.2229750156403 574.9281868338585 556.0523793101311 532.4527733027935 524.2738276720047 502.4180207401514 493.18816559389234 502.7256696484983 499.34435507748276 498.7891697091982 492.95936059206724 504.7702407464385
395.80197632312775 395.0786367058754 416.10341519117355 407.26524591445923 404.6255871653557 419.6634218096733 440.6387694180012 455.28268814086914 472.5088719278574 501.33028242271394 504.9188486300409 510.702533647418 513.1942089647055 492.19733010977507 472.1397217363119 471.3272750377655 467.5622060894966 491.16003047674894 483.7495870888233 503.4115125890821 528.235187754035 553.588479757309 573.5839158296585 581.3948959112167 617.2605529427528 625.1488029956818 606.2532812356949 594.2228361964226 581.2548696994781 555.5410049855709 546.4498698711395 556.5233044326305 508.3058690652251 497.37528641708195 482.77329467236996 490.8105740323663 516.0912182182074 538.2848531007767 553.6322630941868 583.2995921373367 590.615913271904 590.553991496563 598.748467862606 581.750750541687 579.144723713398 573.9275589585304 580.9644535183907 596.0279107093811 598.6234098672867 600.1892536878586 564.9731457233429 556.7347072064877 545.6169284880161 524.099063128233 508.6009902879596 477.8005927801132 455.46429976820946 450.91940835118294 459.9715359508991 455.16449585556984 478.7581246346235 496.104747755453 484.44404546171427 497.84492142498493 502.53650988452137 481.95796832442284 462.7910517156124 448.10768216848373 458.6165212094784 448.39534163475037 418.90086978673935 414.01905566453934 414.8007929325104 447.90855795145035 465.98804742097855 473.0973169207573 493.803468067199 481.9853287190199 484.5227478072047 500.9513591066934 493.22822177782655 494.8567785322666 507.90596660226583 544.0123416483402 563.5524243116379 591.1351889371872 597.8368818759918 596.2510704994202 580.4838016629219 551.7498515546322 530.0068128854036 521.3910862803459 505.43626584112644 481.68029822409153 477.0611245185137 492.51429131254554 516.4738390594721 523.3985222876072 511.01124100387096 524.4471374899149
411.52481734752655 423.308789730072 434.51162427663803 428.2803311944008 423.5307201743126 429.64785546064377 446.67403772473335 477.8765793889761 470.9069263190031 486.34517658501863 495.52773777395487 486.48132011294365 478.5918649286032 472.50627540051937 450.45701041817665 432.0412427186966 447.2421668469906 467.3960618674755 493.42659721150994 500.30080310534686 520.6019021570683 548.2398383319378 568.151518702507 581.1551883816719 621.1609840393066 630.32266497612 603.8039699196815 596.8657732009888 597.0380082726479 593.3802723884583 578.5179510712624 561.0018372535706 530.46590462327 517.0656926929951 502.39704828709364 488.7659465894103 494.71110152080655 521.2659928947687 535.9700806438923 568.6322301626205 576.601929962635 588.6358246207237 588.7603387236595 590.9973084926605 588.8239592313766 592.9837450385094 579.8254162073135 596.6680198907852 591.7119830846786 582.5812220573425 561.8779622018337 541.9383645057678 544.4109849631786 522.5639492273331 506.19735894724727 471.70099429786205 447.2494348883629 449.78418201208115 476.9893903285265 484.98373478651047 497.08982883021235 495.7902431488037 497.7960824035108 519.5253863930702 517.8447626531124 507.2979093529284 495.07784098386765 493.8008259050548 481.53381422162056 451.4955095946789 445.06392627954483 434.54256653785706 430.2719980478287 454.12256196141243 465.06931632757187 489.15260564535856 505.68508449941874 506.67094672098756 489.1745764762163 489.7946519777179 511.3401813432574 511.2575311213732 500.2304710505996 529.7358203679323 544.873122125864 564.0997886657715 584.347166121006 567.6622539758682 554.5126311480999 525.5761500447989 516.7080331593752 502.635883865878 477.05151326954365 477.26498544216156 494.0051268786192 503.4629930742085 511.5780020132661 537.5689081847668 530.4596703499556 532.9414568841457
436.5079328417778 446.5659447014332 447.309710085392 453.0704915523529 455.0902768969536 448.5367052257061 459.85016226768494 473.61599281430244 464.2372280359268 470.77155485749245 468.2539664208889 457.70077034831047 452.47340202331543 440.4015503823757 442.6260255277157 424.4791641831398 419.39350962638855 444.2257545888424 477.17643342912197 478.34073938429356 500.0 532.6545760035515 553.9266131818295 588.8703614473343 610.2496683597565 617.1254962682724 590.2024134993553 584.1541588306427 594.4680795073509 584.1222256422043 563.4920671582222 544.2830249667168 535.009004175663 524.1057574748993 527.1877832710743 516.4310522377491 514.0596982091665 536.0627360641956 552.4211339652538 564.3016174435616 563.4920671582222 562.6441836357117 585.7924744486809 601.0120883584023 603.5946682095528 585.3794664144516 570.3075230121613 591.0417512059212 569.5425942540169 578.2525315880775 563.4920671582222 550.2167344093323 537.7011336386204 517.5543371587992 513.7853669002652 484.6850195899606 452.71726325154305 443.3734714984894 474.4833894073963 497.8360659442842 500.0 504.65777376666665 519.2487221211195 541.102722287178 531.7592471837997 531.7460335791111 533.1265851855278 535.9614118933678 512.375314719975 498.97090857848525 500.0 492.13007371872663 466.0617299377918 475.0826880335808 484.64102670550346 500.0 527.3320376873016 530.9841297566891 502.96227005310357 489.65130746364594 500.0 504.4891587458551 498.28524433542043 497.1611623186618 513.6543055996299 531.7460335791111 554.8124052584171 558.2872144877911 547.3640151321888 523.3295690268278 500.0 475.4005279392004 469.3328123539686 474.8480450361967 485.3764520958066 500.0 516.2489488720894 516.9945936650038 519.9618954211473 498.5626027919352
455.8053947985172 477.42285393178463 482.2503123432398 487.09377832710743 479.9676649272442 472.288703545928 474.89089891314507 466.7530246078968 442.5702951848507 445.615716278553 446.3745802640915 432.27794766426086 430.4995685815811 428.56187373399734 419.83676701784134 408.9485853910446 392.738975584507 402.1100774407387 452.43413001298904 478.2457426190376 483.55198465287685 513.4499669075012 558.2791045308113 584.6684128046036 604.574628174305 617.9824396967888 604.0744632482529 591.2256240844727 586.5470767021179 572.2975805401802 542.620774358511 529.8051498830318 534.2714115977287 521.2726257741451 529.9416538327932 534.3603640794754 524.958286434412 550.9811714291573 551.4305718243122 539.9084873497486 539.9174988269806 545.7523688673973 573.1936171650887 609.729215502739 610.7786297798157 583.8682129979134 572.1850320696831 567.8679198026657 571.1733773350716 583.66908878088 566.009171307087 559.5715753734112 539.812471717596 516.572929918766 509.0887015685439 500.2844137197826 462.1019512414932 454.65268939733505 470.81764228641987 510.30626241117716 510.6785483658314 524.3549346923828 530.7521298527718 546.4872904121876 538.8308800756931 552.5299273431301 550.9373545646667 556.0115054249763 549.6012978255749 551.5190213918686 543.4963032603264 532.9070016741753 493.34783712401986 498.3813436701894 505.03887375816703 516.0192046314478 531.0321282595396 530.8815557509661 508.73442459851503 477.20620408654213 493.97996766492724 502.41392757743597 483.94326120615005 474.8705308884382 485.5779688805342 507.60914105921984 520.0595185160637 532.3743931949139 541.023600846529 516.8503969907761 493.38767724111676 478.31848450005054 475.808497518301 481.5017469227314 484.73662976175547 509.9002914503217 521.0632011294365 520.6592064350843 501.816792646423 478.2553482800722
464.40379321575165 489.66517578810453 500.98622555378824 503.00623988732696 500.09712079918245 487.09443863481283 458.73893052339554 457.9944759607315 460.32338216900826 447.7052725851536 431.31688982248306 421.04337364435196 399.912066757679 398.707814514637 394.7259783744812 371.48186564445496 365.7085746526718 402.25792676210403 457.23891258239746 496.8580952845514 501.9525041570887 508.60918313264847 550.5569130182266 590.5837714672089 595.6640541553497 615.8629357814789 615.8038675785065 602.3343726992607 579.5651227235794 558.54681879282 540.94373062253 533.7659269571304 533.8201858103275 523.1799054890871 537.9978939890862 521.6395035386086 521.6438472270966 522.8014178574085 525.2510141581297 508.58006719499826 524.8300023376942 533.3743803203106 547.2820587456226 595.1606556773186 588.1464257836342 596.3629484176636 589.16225284338 571.5627744793892 582.3821797966957 591.2489369511604 566.9968500733376 545.9489300847054 539.6567918360233 518.0970281362534 492.1893570572138 490.2418190613389 474.21963326632977 464.8362919688225 479.887330904603 496.554100420326 519.789220765233 531.6161662340164 540.5501648783684 528.9096254855394 532.9608507454395 547.3073236644268 535.6106907129288 544.655330479145 582.8575417399406 588.1031379103661 580.5912017822266 559.1873675584793 533.5822552442551 525.0279884785414 525.691432878375 533.0547578632832 537.6992151141167 508.0856755375862 502.3912137839943 483.76634903252125 476.5089750289917 494.58392057567835 486.5033933892846 484.91912987083197 487.2664278373122 494.9438036419451 489.1008725389838 494.2113417200744 513.1270382553339 495.118897408247 491.8059790506959 491.56072083860636 474.2861222475767 465.3758257627487 482.20066726207733 499.61066732066683 513.5340932756662 511.2378392368555 497.8177410084754 463.6516347527504
476.27884708344936 499.16030053282157 509.5770386978984 515.3626911342144 513.1470132619143 483.4389016032219 453.8103938102722 447.0919445157051 451.97443291544914 441.255796700716 416.44690930843353 396.2782025337219 373.6934959888458 376.65213644504547 383.30739736557007 370.95652520656586 367.8610473871231 399.858683347702 449.8906247317791 487.6603661105037 492.04673059284687 500.26525888824835 535.9529107809067 576.3550773262978 596.8733206391335 614.4513934850693 610.3895083069801 597.4845662713051 573.7309828400612 568.7823072075844 562.312938272953 556.3623271882534 541.7265482246876 534.8417907953262 543.8840389251709 534.5825664699078 519.6372475475073 514.8867405951023 507.06230849027634 492.6365250721574 491.8650211766362 507.0373644120991 506.84299878776073 541.8119765818119 562.6779720187187 572.5774019956589 583.2704901695251 571.251355111599 578.740581870079 568.5347095131874 557.2873540222645 556.3366860151291 548.6137270927429 514.0374237671494 471.29037976264954 472.0492362976074 469.4230407476425 466.8605737388134 490.8052021637559 509.41710360348225 508.40952433645725 534.1605097055435 550.1509383320808 537.7684161067009 540.0451496243477 530.3796995431185 537.6955009996891 550.7460236549377 604.2984798550606 622.7634847164154 594.0745770931244 586.2221345305443 573.0351805686951 555.3732849657536 538.107056170702 539.8996844887733 539.794348180294 512.7017050981522 494.3172778002918 461.04612946510315 477.57861390709877 500.34005159977823 495.2801465988159 502.0801965147257 498.2558392221108 493.4030044823885 466.8879061937332 467.8630568087101 481.39609955251217 466.12992510199547 463.60938623547554 487.80905455350876 459.1810628771782 441.96687266230583 444.25664469599724 477.9044035822153 495.7860428839922 481.2022466212511 476.15765035152435 454.7390565276146
489.33336697518826 506.1743804253638 529.8349224030972 543.5520187020302 520.1540309935808 478.89153473079205 447.7415084838867 454.1662335395813 433.9989200234413 429.3527603149414 432.2611093521118 420.0960770249367 391.5473520755768 384.32522118091583 370.92772126197815 373.2166886329651 391.49661362171173 403.79946678876877 470.7665555179119 499.53029103926383 505.7000811211765 514.004098251462 536.1240431666374 560.1426400244236 574.4500681757927 592.394232749939 602.204218506813 593.2710990309715 580.0104811787605 575.948029756546 576.8975615501404 562.399685382843 577.0001038908958 562.0877258479595 558.298334479332 537.4828763306141 521.9317954033613 505.67394820973277 499.99804889398547 495.5060691572726 502.4675924796611 503.70060838758945 520.3023664653301 519.2888397723436 527.731766924262 562.443844974041 573.7993121147156 554.1951544582844 558.8598288595676 551.4154769480228 558.0470077693462 569.8792263865471 565.7089203596115 546.2926141917706 500.5686706281267 474.5661336928606 466.24860540032387 483.6133234202862 483.2846224308014 514.3957510590553 522.2771260887384 530.6596271693707 536.1729338765144 537.6457646489143 554.8264719545841 558.5827603936195 544.0809205174446 551.8875382840633 598.6989587545395 598.8828167319298 581.4262852072716 582.1071267127991 569.4363787770271 560.1273402571678 534.6647091209888 542.0640334486961 538.3551940321922 496.62455287761986 482.54892230033875 479.6698782593012 474.7382868081331 491.5459780022502 504.44125523790717 512.0421685278416 501.2006831821054 482.9514864832163 456.0111165046692 423.8663986325264 435.1492151618004 430.7090491056442 437.0727092027664 446.60109281539917 434.4874620437622 427.17212438583374 443.6987191438675 456.7034840583801 465.56519344449043 461.1748345196247 470.65882943570614 470.1616242527962
512.0287695899606 523.0077635496855 550.5691170692444 572.5959315896034 546.3055111467838 503.6531479563564 465.8118709921837 459.4094380736351 454.8323228955269 431.69691413640976 426.6493022441864 421.07346653938293 396.1683586239815 393.257811665535 390.3484344482422 413.1375253200531 430.1605448126793 430.3433299064636 472.38645516335964 496.83915241621435 500.0 507.21211452037096 523.7452909350395 567.6733776926994 562.3087100684643 576.6436830163002 598.3326211571693 587.5338837504387 582.3601186275482 586.6928771138191 585.3794664144516 574.3028223514557 588.1619900465012 579.4124752283096 574.8182833194733 564.8527592420578 549.6508218348026 546.1553558707237 529.3536297976971 538.0454510450363 525.1736119389534 524.3212655186653 505.5465926416218 503.25920316390693 502.118200995028 529.024638235569 544.9082590639591 549.2986589670181 552.2063262760639 533.7386205792427 553.6334328353405 563.3309036493301 554.8341684043407 553.1853586435318 529.549254104495 509.5384381711483 501.2143774656579 497.3069028928876 494.1755644977093 498.797251842916 505.45634934678674 511.9540663436055 533.6628444492817 556.5862059593201 564.8368373513222 564.859539270401 562.1749609708786 562.635637819767 589.902825653553 585.8099013566971 568.9484104514122 554.7569766640663 535.8338356018066 523.1301244348288 510.3233251720667 517.2404944896698 515.621186234057 496.58319959416986 488.0208531394601 498.50974953733385 500.0 504.00755973532796 527.0455721765757 510.89019048959017 476.4482416212559 458.7155282497406 418.38695853948593 395.7105800509453 383.7680220603943 392.68308132886887 404.761902987957 415.89825600385666 422.7876737713814 420.18499225378036 441.27270579338074 454.2241171002388 464.028213173151 477.085642516613 479.1059009730816 481.2659826129675
521.4379522949457 537.1708199381828 557.216715067625 578.6202549934387 552.0455092191696 513.1831737235188 484.5210462808609 471.53310663998127 466.8935090303421 438.5981969535351 424.38653111457825 416.5040999650955 405.9254601597786 395.6357464194298 419.0787747502327 449.50682669878006 460.9247110784054 464.7444225847721 465.9585654735565 489.87486865371466 498.0332909617573 498.7006882438436 522.0151953399181 542.6111593842506 552.7572706341743 563.5247007012367 579.5296058058739 578.0787393450737 587.4677747488022 590.3544649481773 594.0301939845085 583.0599963665009 584.836795926094 596.665270626545 608.8168993592262 598.5751301050186 581.0078009963036 577.7268633246422 559.905406087637 568.794496357441 548.1269508600235 531.0543868690729 490.0257829576731 472.6527612656355 471.8789681792259 499.3500220007263 522.1987850964069 548.7291477620602 541.4120517671108 525.1031424850225 543.5108691453934 553.6020286381245 556.0092739760876 557.2155378758907 540.1998236775398 533.8877849280834 530.850924551487 518.1053597480059 495.33871188759804 482.82639123499393 468.7243029475212 490.0819016620517 533.1370420753956 570.8344504237175 577.6612237095833 571.2349563837051 569.074310362339 572.0412358641624 564.3301978707314 557.5508736073971 555.9136793017387 533.7445549666882 521.8571964651346 494.3735268898308 499.3013862404041 507.5963130220771 509.3730064108968 501.068101497367 519.3964671343565 532.9404138028622 539.3264479935169 539.9219356477261 549.6058985590935 519.1676542162895 481.2801778316498 443.96867230534554 396.65985852479935 365.77700078487396 353.3821702003479 378.532350063324 384.633406996727 393.9124867320061 408.37041288614273 421.9783619046211 432.0210963487625 448.6956596374512 476.0449696332216 498.9521276438609 496.2147776968777 500.0659934594296
525.7182773202658 538.3179150521755 551.4547899365425 570.4952329397202 558.6430057883263 526.7608128488064 503.71445808559656 472.42316231131554 458.8531479239464 462.28060126304626 441.5186569094658 419.2797541618347 419.6318909525871 414.6403968334198 415.1073843240738 445.85171341896057 479.0026433765888 484.61525049060583 484.47731509804726 487.6659531146288 508.0182245001197 518.120288848877 515.8633645623922 526.9817356020212 528.4926183521748 535.2554693818092 521.7298194766045 541.1080494523048 582.1364894509315 593.7704965472221 599.8234674334526 621.261440217495 612.8534600138664 619.9379414319992 616.7100220918655 618.312768638134 606.5670996904373 581.0172855854034 576.6419619321823 579.4683918356895 557.7875338494778 526.0634142905474 497.18753923662007 473.6494477838278 477.75888070464134 486.68063804507256 494.345607701689 520.1790817081928 510.080274194479 528.9670284837484 530.1214531064034 534.8099879920483 556.7982085049152 563.0011335015297 543.1519374251366 547.7539747953415 556.6803701221943 539.13913667202 495.6301501952112 470.2630117535591 463.1262682378292 457.0915773510933 494.9767654761672 552.4900518357754 584.3524187803268 593.6392769217491 585.1966291666031 580.1633968949318 541.6210405528545 520.3040633350611 524.6389359235764 512.7275558188558 510.4543911293149 504.57600643858314 511.70199923217297 491.7650353163481 478.72803173959255 495.2556793577969 523.9082798361778 557.4850477278233 555.7622909545898 547.4742576479912 539.4346788525581 542.4099527299404 512.3550603166223 468.74311566352844 414.91493582725525 381.36155158281326 363.1521165370941 380.02771884202957 386.9800195097923 403.0241593718529 427.73229628801346 430.48297613859177 419.08449679613113 460.1733721792698 481.2632333487272 500.75001147342846 488.55205718427896 496.8590410426259
519.4112826138735 527.3686777800322 556.0398697853088 573.423944413662 559.5605298876762 534.3959406018257 520.8698343485594 496.87707307748497 481.3417661935091 469.4059547036886 444.52015683054924 432.22426623106 417.7817180752754 414.17721658945084 416.63626581430435 449.94134083390236 488.5444240644574 492.4082192592323 485.034454613924 488.5424207895994 519.9171882122755 544.1381931304932 528.7434849888086 535.4729741811752 519.3196702748537 511.233395896852 511.15789264440536 519.9793074280024 557.0441037416458 590.3187021613121 617.9367825388908 624.6048659086227 610.9678074717522 609.4385460019112 605.1555126905441 597.1193090081215 608.5273027420044 594.4922715425491 597.8639274835587 574.1600766777992 550.4665039479733 526.5800338238478 510.2739538997412 487.74063866585493 468.11866760253906 470.5298002809286 479.6660505235195 498.9556606160477 496.8062855768949 526.9635822623968 538.0262061953545 528.4184087067842 539.0325412154198 560.2370910346508 559.201966971159 546.8901246786118 554.2594492435455 524.9229613691568 489.6451709792018 476.67231410741806 479.792345315218 471.1499325931072 485.0777480751276 530.7320933789015 570.0191482901573 568.5780346393585 593.5704037547112 594.0057635307312 547.4374890327454 532.7767841517925 527.8511960059404 520.8363477140665 514.6127138286829 514.7994253784418 514.6321197971702 509.23774391412735 496.64955283515155 501.82660249993205 516.5072809904814 533.0560468137264 535.4986190795898 544.8649860918522 545.6802621483803 548.6496761441231 516.3817778229713 476.2279689311981 445.53258642554283 419.1150814294815 404.0224999189377 403.7798121571541 403.15279364585876 426.27544701099396 431.66783452033997 426.50583386421204 424.84625428915024 452.6407793164253 479.08088378608227 488.05523104965687 499.4962480268441 521.6612163931131
499.2187467869371 513.9854801818728 544.8356792330742 565.8499002456665 569.5893093943596 548.666462302208 522.960901260376 510.8094159513712 503.7075923755765 483.7998505681753 479.5672707259655 459.4607912003994 427.16143280267715 436.0309913754463 447.29791209101677 462.6442603766918 483.4665171802044 504.09712037071586 488.51138073951006 500.23752261768095 519.3696729838848 526.6875755041838 527.2237155586481 541.1732606589794 534.9042266607285 515.643173828721 527.5415405631065 537.6386754214764 538.4253673255444 551.9153326749802 584.8186388611794 600.9054929018021 596.1221605539322 586.1262828111649 581.8453952670097 586.4267870783806 591.575562953949 585.4792147874832 587.2479900717735 543.3104895055294 519.8202058672905 512.7141512930393 510.61302423477173 489.2198294401169 481.7639198154211 468.6673656105995 474.39882159233093 477.91118174791336 505.0405580550432 519.8669042438269 528.4753069281578 528.349069878459 520.8955965936184 525.9955152869225 512.9290418699384 531.3838124275208 540.2328483760357 513.2655706256628 507.32642970979214 501.5766372671351 495.20964501425624 495.9880942478776 495.57926319539547 510.6255793944001 543.6917245388031 562.974214553833 571.5962275862694 595.6335291266441 567.5023049116135 553.8350492715836 536.7314293980598 540.7976768910885 525.31280182302 529.131505638361 510.343755595386 499.73024215432815 499.53827570425346 502.03113560564816 515.6023520976305 512.032201513648 515.528635121882 530.1415342837572 533.2849808037281 531.7153260111809 513.9423590153456 490.0418855249882 464.48568627238274 429.2260780930519 422.833189368248 423.1797084212303 430.849552154541 435.54002046585083 466.8748155236244 464.184258133173 454.14216816425323 452.74798199534416 472.3243936896324 472.43572026491165 495.96296017989516 508.8788326829672
500.0 511.87298353761435 552.2788539528847 562.6402795314789 576.5023678541183 568.9484104514122 535.385899245739 524.8534865677357 511.75973657518625 501.8811533227563 500.0 485.8237598091364 458.46298336982727 466.47248417139053 454.92875948548317 462.7976194024086 484.99653674662113 488.95640205591917 482.88872838020325 487.3935664072633 500.0 503.44433169811964 520.6709895282984 525.7285591214895 526.7692599445581 525.1736119389534 529.9529917538166 531.4861424267292 517.603063955903 535.1886413991451 563.4920671582222 584.2098370194435 583.6144760251045 582.7906355261803 576.1579349637032 583.209328353405 584.4312682747841 562.4772049486637 552.33583599329 517.1113684773445 500.0 495.3015996143222 482.2466243058443 463.3915275335312 476.2448351830244 468.2539664208889 458.110474050045 466.1434665322304 491.61501694470644 490.89066591113806 500.0 501.54312478844076 500.7557890494354 499.2685616016388 491.26044288277626 500.0 507.1791484951973 510.01857593655586 516.418531537056 502.6565105654299 500.0 515.1964947581291 499.23405080335215 505.38471434265375 519.2071199417114 551.4632947742939 560.2483563125134 577.1307200193405 568.8944607973099 566.1262720823288 563.4920671582222 560.423880815506 554.2333573102951 528.8371965289116 502.83020944334567 493.4275792911649 495.3442830592394 466.7423851788044 483.8557504117489 491.93656258285046 500.0 516.7451128363609 506.6844639368355 517.7619531750679 493.47116658464074 474.8263880610466 450.60818269848824 429.9645647406578 429.6853691339493 434.3433827161789 436.5079328417778 436.6898238658905 460.20010113716125 480.56328296661377 478.57328318059444 480.2827388048172 477.76355780661106 495.99836440756917 497.85247538238764 499.26655989838764
