5.408990941941738 5.441809333860874 5.55972158908844 5.560262128710747 5.472854897379875 5.279018096625805 5.018171080155298 5.197452083230019 5.376800484955311 5.526721701025963 5.545930229127407 5.569575056433678 5.625341162085533 5.645250603556633 5.8611564338207245 5.877914577722549 5.649414658546448 5.413937531411648 5.480112470686436 5.329372696578503 5.345630645751953 5.405751504004002 5.4321955144405365 5.592936985194683 5.472987554967403 5.221794191747904 4.902078006416559 4.632826633751392 4.4907743111252785 4.344392865896225 4.072782173752785 3.925369456410408 3.9626286178827286 3.6769597232341766 3.5262998938560486 3.557543158531189 3.7532804161310196 3.8735704869031906 4.043280631303787 4.344701319932938 4.49380062520504 4.759079627692699 4.883110709488392 4.7818950936198235 5.004038834304083 5.130261089652777 5.272091794759035 5.8409930020570755 5.994648337364197 5.8590117841959 5.74850507080555 5.757806524634361 5.450894199311733 5.339636728167534 5.495660714805126 5.644960403442383 5.598560273647308 5.260466318577528 5.04007029812783 4.916965700685978 5.0222578016109765 5.1701210625469685 4.868231387808919 4.846988255158067 4.737475290894508 4.709794092923403 4.6330564841628075 4.8097781278193 4.915748760104179 4.977077373769134 4.680254086852074 4.508756548166275 4.634247832000256 4.741049185395241 4.657651707530022 4.547811597585678 4.488144665956497 4.542813524603844 4.374389350414276 4.451945759356022 4.6948823146522045 4.614277631044388 4.514938332140446 4.635309278964996 4.744279254227877 5.044532474130392 5.406083464622498 5.499671846628189 5.492010712623596 5.402010791003704
5.76636902987957 5.838843807578087 5.926365405321121 5.696880146861076 5.782089605927467 5.546339713037014 5.193732790648937 5.273317247629166 5.600636750459671 5.6934954226017 5.667782723903656 5.741116255521774 5.629051849246025 5.703948065638542 5.66524900496006 5.707448348402977 5.529487766325474 5.488449297845364 5.575465001165867 5.452995374798775 5.514632947742939 5.5903444811701775 5.59134341776371 5.79263873398304 5.5335647985339165 5.3014749102294445 5.171041171997786 4.86807263456285 4.509940929710865 4.393668062984943 4.179067462682724 3.9105424284934998 3.924325630068779 3.7146788835525513 3.72309610247612 3.800639808177948 3.792070150375366 4.021034091711044 4.099731296300888 4.250551536679268 4.485367052257061 4.73730955272913 4.724624380469322 4.8862191289663315 5.122421737760305 5.353923961520195 5.474421344697475 5.770835652947426 5.939101427793503 5.765436142683029 5.634920671582222 5.643390044569969 5.272867251187563 5.103341415524483 5.120934117585421 5.201597660779953 5.126017369329929 4.947161767631769 4.851569514721632 4.576625786721706 4.748263880610466 4.889287380501628 4.927224763669074 4.866044335067272 4.840476457029581 4.70975361764431 4.552877657115459 4.797217603772879 4.9603953352198005 5.05419191904366 4.7811259888112545 4.642373695969582 4.731978010386229 4.829865414649248 4.764362405985594 4.7458854503929615 4.658215567469597 4.454326741397381 4.313263967633247 4.3838778510689735 4.627976194024086 4.608791805803776 4.727803263813257 4.60254680365324 4.6714431047439575 4.822838194668293 5.161307230591774 5.181133896112442 5.265853386372328 5.266308356076479
6.114128082990646 6.150851547718048 6.071233302354813 5.948484018445015 5.946011766791344 5.749085173010826 5.44734388589859 5.477476194500923 5.709276050329208 5.755154117941856 5.739082917571068 5.804962366819382 5.752945691347122 5.760901123285294 5.614810772240162 5.584259144961834 5.470767468214035 5.365133360028267 5.4649414122104645 5.57848509401083 5.658763200044632 5.759226679801941 5.815729051828384 5.836126878857613 5.545966438949108 5.414465181529522 5.262419655919075 4.926157440058887 4.559375569224358 4.619108848273754 4.3477485328912735 3.967146873474121 3.7695174664258957 3.740845173597336 3.9960402250289917 3.9050260186195374 3.9068709313869476 4.106146022677422 4.235847517848015 4.257683977484703 4.451103210449219 4.740869179368019 4.812777396291494 4.867032542824745 5.224586091935635 5.518046319484711 5.584027133882046 5.73024794459343 5.7726262509822845 5.574773699045181 5.4560815170407295 5.413306504487991 5.105072800070047 5.034157016780227 4.756107814610004 4.7379859909415245 4.715927205979824 4.681278131902218 4.480549953877926 4.417610354721546 4.481234401464462 4.706281181424856 4.902657819911838 4.688456580042839 4.781318176537752 4.694921262562275 4.653930887579918 4.80907479301095 4.838219024240971 4.8656444158405066 4.869531458243728 4.772779922932386 4.913465064018965 5.118208592757583 4.995588111632969 5.01800638390705 4.957228675484657 4.504436664283276 4.448996298015118 4.607737101614475 4.7979833371937275 4.908938938751817 4.7849636152386665 4.739268179982901 4.596466422080994 4.724363517016172 4.805986527353525 4.980496300850064 5.071873497217894 5.169344171881676
6.2818969786167145 6.466822922229767 6.364250928163528 6.213809326291084 6.184940338134766 6.035225093364716 5.842293947935104 5.736546739935875 5.654997453093529 5.844563543796539 5.9099652618169785 5.912297889590263 5.91097466647625 5.9896862506866455 5.856132209300995 5.696621090173721 5.582877025008202 5.645045787096024 5.475221499800682 5.450880192220211 5.648233741521835 5.97688652575016 5.97160167992115 5.849221348762512 5.591429881751537 5.515965297818184 5.276793595403433 4.9647550215013325 4.629730060696602 4.598763696849346 4.371567443013191 4.155777394771576 3.888620510697365 4.040680602192879 4.065230265259743 4.004765748977661 3.8385234028100967 4.054461643099785 4.189473539590836 4.350402280688286 4.530437886714935 4.7161526419222355 4.881760291755199 5.11931736022234 5.340728014707565 5.592914447188377 5.73582261800766 5.763922929763794 5.478620193898678 5.342155620455742 5.130090024322271 5.047483290545642 5.033509668428451 4.8917927127331495 4.559709317982197 4.3371278792619705 4.333811849355698 4.192079529166222 4.297047406435013 4.281037822365761 4.39582783728838 4.566270001232624 4.460528455674648 4.469638280570507 4.447332248091698 4.530768729746342 4.566020406782627 4.427569918334484 4.446103200316429 4.580112844705582 4.650867059826851 4.76052675396204 4.89879060536623 5.1220594346523285 5.1287986151874065 5.0758433155715466 5.107007613405585 4.772188551723957 4.864446604624391 4.9843262252397835 5.072648893110454 5.166834890842438 4.909621234983206 4.594634622335434 4.505987763404846 4.430911131203175 4.512069150805473 4.744673073291779 4.9580599227920175 5.135314781218767
6.582181304693222 6.61301463842392 6.632373183965683 6.569994240999222 6.436400860548019 6.264834105968475 6.01579375565052 5.883793979883194 5.716726183891296 5.700087994337082 5.953254699707031 6.019283309578896 6.037609800696373 6.043156012892723 6.026341617107391 5.796539261937141 5.685995370149612 5.749167427420616 5.459283031523228 5.371936894953251 5.676591843366623 5.975689888000488 5.976038724184036 5.930653065443039 5.755838006734848 5.6517744064331055 5.457647629082203 5.368585996329784 5.067756208591163 4.6679674834012985 4.408457055687904 4.054403603076935 3.735906332731247 3.8722603768110275 4.022732004523277 3.8698721677064896 4.0232498198747635 3.998684138059616 4.049340486526489 4.210978075861931 4.4537244737148285 4.734477661550045 5.1642862148582935 5.40273379534483 5.561827644705772 5.711913108825684 5.724188461899757 5.528519228100777 5.245207343250513 5.28404388576746 5.3522639721632 5.003173651639372 4.857027055695653 4.693405106663704 4.523988254368305 4.3886882066726685 4.2158254981040955 4.220907092094421 4.427010416984558 4.362926855683327 4.420586712658405 4.376526102423668 4.2622604966163635 4.264410734176636 4.193509444594383 4.1653867065906525 4.3326374888420105 4.311606287956238 4.303106442093849 4.20378714799881 4.543548077344894 4.64605625718832 4.968856037594378 5.278723482042551 5.313792489469051 5.335926078259945 5.210390239953995 5.0590053061023355 5.2168903686106205 5.145807256922126 5.029094549827278 5.18602978438139 4.939668430015445 4.604501985013485 4.398752078413963 4.419502094388008 4.3833227455616 4.5308588445186615 4.696708098053932 4.872758723795414
6.3282521069049835 6.569747030735016 6.592292487621307 6.59400537610054 6.46017000079155 6.281123757362366 5.959735289216042 5.864697173237801 5.714050158858299 5.807548612356186 5.891147330403328 6.007479876279831 6.125006750226021 6.071256697177887 6.059371381998062 5.936992391943932 5.918465778231621 5.786561071872711 5.5600858479738235 5.399471782147884 5.645201951265335 6.015917733311653 6.0338035225868225 6.078509613871574 5.9153494238853455 5.669441446661949 5.424693785607815 5.361566431820393 5.213237479329109 4.841012433171272 4.403267689049244 4.0372200310230255 3.908884674310684 3.6463630199432373 3.6354129016399384 3.8831187039613724 3.889050707221031 3.8273894786834717 3.9800629764795303 4.221625849604607 4.407491385936737 4.753311946988106 5.099943559616804 5.384661890566349 5.3617167845368385 5.484695136547089 5.542792826890945 5.263009835034609 5.2482544630765915 5.372879654169083 5.401022583246231 5.2294097281992435 5.065896012820303 5.016978895291686 4.7681245766580105 4.423951096832752 4.178927540779114 4.272896721959114 4.506310559809208 4.2857105284929276 4.289226531982422 4.34409886598587 4.231190234422684 4.150552898645401 4.080788195133209 4.124918580055237 4.073158502578735 4.029511511325836 4.129571542143822 4.225214198231697 4.421147219836712 4.698984790593386 4.969473679084331 5.299979392439127 5.302121769636869 5.317099690437317 5.410695485770702 5.242325644940138 5.173462480306625 5.206220559775829 5.196239184588194 4.947371166199446 4.765427391976118 4.783433824777603 4.732869789004326 4.613952003419399 4.507020004093647 4.435733295977116 4.661000072956085 4.679441414773464
6.269841343164444 6.382812559604645 6.472457051277161 6.489308029413223 6.37452706694603 6.204117089509964 5.934079959988594 5.623999051749706 5.636931881308556 5.783130973577499 5.95238097012043 6.090687587857246 6.011321991682053 5.903528481721878 5.807004496455193 5.700644850730896 5.695862844586372 5.586506240069866 5.321392342448235 5.304339602589607 5.634920671582222 5.955501273274422 6.016848310828209 6.013099625706673 5.884815081954002 5.623759925365448 5.29196223244071 5.047241081483662 5.132063617929816 4.840708784759045 4.365079328417778 4.05651219189167 3.794829100370407 3.441712260246277 3.3739934861660004 3.609870970249176 3.7820494174957275 3.9275217801332474 4.050768688321114 4.206554666161537 4.365079328417778 4.576746858656406 4.887287998571992 5.281743258237839 5.311517529189587 5.350322425365448 5.319091267883778 5.010704210726544 5.1586187072098255 5.211040433496237 5.317460335791111 5.313960164785385 5.304802637547255 5.119007593020797 4.9309964291751385 4.529389888048172 4.256797507405281 4.363896697759628 4.461353346705437 4.377145580947399 4.365079328417778 4.371576979756355 4.250469133257866 4.07623827457428 4.093018546700478 4.146205335855484 3.9646729081869125 4.020004868507385 4.050585329532623 4.146384075284004 4.365079328417778 4.686378464102745 4.941118936985731 5.124088181182742 5.188078917562962 5.153149804100394 5.236617010086775 5.070630824193358 5.026900456286967 5.041215247474611 5.0 4.842275753617287 4.881589449942112 4.9295645812526345 4.934303914196789 4.682539664208889 4.454597868025303 4.548012651503086 4.600436985492706 4.698833879083395
6.281826943159103 6.371818035840988 6.272918879985809 6.298524886369705 6.375872045755386 6.189547777175903 5.889219120144844 5.467787608504295 5.435167588293552 5.594958886504173 5.930757746100426 6.117573603987694 5.879094675183296 5.901033505797386 5.604490153491497 5.536666586995125 5.525175109505653 5.314607731997967 5.19723417237401 5.407379604876041 5.724416598677635 5.989588126540184 6.218020468950272 5.981740280985832 5.970773249864578 5.610294826328754 5.177887137979269 4.990640729665756 4.717874508351088 4.65472511947155 4.277346804738045 3.9773892611265182 3.6572057008743286 3.38629350066185 3.3573591709136963 3.4728534519672394 3.6742888391017914 3.904533237218857 3.9224932342767715 4.106285274028778 4.278082549571991 4.466521590948105 4.914801865816116 5.145997507497668 5.237910710275173 5.206087082624435 5.21772688254714 5.00273049576208 5.154969813302159 5.24520268663764 5.373470336198807 5.469281412661076 5.322072133421898 5.131364641711116 4.914545593783259 4.724643509835005 4.506473317742348 4.554202519357204 4.67534389346838 4.590437188744545 4.527811296284199 4.459993951022625 4.177388176321983 4.122905284166336 4.231940880417824 4.305240735411644 4.1847507655620575 4.1191671043634415 4.1470917314291 4.182108715176582 4.375155679881573 4.643143080174923 4.856710126623511 4.903246266767383 5.004669692716561 4.959652926772833 5.030004163272679 4.948206725530326 4.855048935860395 4.851340735331178 4.791641421616077 4.716591406613588 4.910611240193248 5.0952428206801414 4.787822961807251 4.670324735343456 4.536621160805225 4.693108629435301 4.712826684117317 4.93346007540822
5.817879289388657 5.961965098977089 6.095650866627693 6.174839660525322 6.161933019757271 6.022194996476173 5.865863263607025 5.485887676477432 5.429790653288364 5.482504405081272 5.840919390320778 5.9727030247449875 5.812767148017883 5.871539041399956 5.571121126413345 5.468309596180916 5.356309451162815 5.2193050272762775 5.48835463821888 5.7231321185827255 5.920177772641182 5.945654585957527 6.197738274931908 6.148488223552704 6.066074520349503 5.787865072488785 5.40623277425766 5.123106623068452 4.7924767062067986 4.589111544191837 4.365241751074791 4.0389686822891235 3.7472964823246 3.591635376214981 3.358428478240967 3.4067612886428833 3.660123199224472 3.8467787206172943 3.892514631152153 3.983437195420265 4.26698662340641 4.615708738565445 4.960912340320647 5.15453533269465 5.166355706751347 5.298958886414766 5.276476293802261 5.311401449143887 5.274486541748047 5.300908461213112 5.613993816077709 5.743597447872162 5.616724155843258 5.279148165136576 5.061668832786381 4.894965346902609 4.947729781270027 4.768759701400995 4.82213918119669 4.667090252041817 4.5859504491090775 4.561853371560574 4.345286637544632 4.312446191906929 4.404617100954056 4.5009782537817955 4.383148699998856 4.203029349446297 4.280737116932869 4.342653006315231 4.536680765450001 4.706314150243998 4.9484576703980565 4.989040012005717 5.102441860362887 5.102526983246207 5.0885886605829 5.065570785664022 4.834687374532223 4.793467856943607 4.771083164960146 4.8553229961544275 4.76831067353487 4.830650258809328 4.778225142508745 4.748294726014137 4.649644009768963 4.718357548117638 4.680656306445599 5.01789118279703
5.544459372758865 5.573861859738827 5.69549061357975 5.771401077508926 5.90145155787468 5.985999330878258 5.866483673453331 5.642624497413635 5.5971213430166245 5.470278896391392 5.769304186105728 5.956036448478699 5.848737880587578 5.866590216755867 5.587093122303486 5.318155996501446 5.242186300456524 5.327173285186291 5.721453949809074 5.982477739453316 5.9811317920684814 6.154152378439903 6.159052923321724 6.182262524962425 6.203422993421555 5.995925888419151 5.551879703998566 5.2835797145962715 4.957942818291485 4.5912374928593636 4.314456507563591 4.235401600599289 3.9494121819734573 3.6709272861480713 3.5436293482780457 3.5468891263008118 3.725065290927887 3.7446698546409607 3.9001451432704926 4.081139266490936 4.299873784184456 4.6369969099760056 5.028074963483959 5.315144844353199 5.41515726596117 5.370590724050999 5.459101013839245 5.430097579956055 5.433642342686653 5.514578074216843 5.656274855136871 5.828070342540741 5.829673781991005 5.54667666554451 5.247740764170885 5.187422130256891 5.014267797814682 4.757792837917805 4.961786922067404 4.960358925163746 4.700728449970484 4.791011903434992 4.77111766114831 4.752846974879503 4.625521823763847 4.481885209679604 4.2685528844594955 4.139111638069153 4.271907359361649 4.412605240941048 4.388936050236225 4.626929499208927 4.879589658230543 4.957126029767096 5.089820912107825 5.28744000941515 5.321761853992939 5.33688772469759 5.111841391772032 5.0736998207867146 4.832920804619789 4.613419696688652 4.553813710808754 4.573182798922062 4.590768069028854 4.788156542927027 4.779053349047899 4.650864787399769 4.658296145498753 4.731537848711014
5.415898337960243 5.514214411377907 5.443285442888737 5.569290183484554 5.675937160849571 5.796769931912422 5.747218430042267 5.44509831815958 5.354511849582195 5.339545048773289 5.503430739045143 5.67228876054287 5.852169245481491 5.778675228357315 5.665870383381844 5.518205091357231 5.383499376475811 5.322973355650902 5.555219762027264 5.8285923302173615 6.1000484228134155 6.217364519834518 6.174082532525063 6.185912862420082 6.268500536680222 6.015041321516037 5.790580585598946 5.432284250855446 4.995482729573268 4.822554066777229 4.684866517782211 4.515277370810509 4.396689869463444 4.038877114653587 3.916446641087532 3.6543701589107513 3.6062243580818176 3.9019108563661575 4.086805135011673 4.164187461137772 4.321011081337929 4.524950422346592 4.95379454921931 5.278386697173119 5.362124070525169 5.282590724527836 5.319379232823849 5.323652774095535 5.651404336094856 5.7071880251169205 5.795078426599503 5.789160504937172 5.790657997131348 5.707107335329056 5.4181430116295815 5.338100157678127 5.181729067116976 4.902238743379712 4.872182281687856 4.960242840461433 4.94003364816308 4.8731972835958 4.939304580911994 4.868205618113279 4.971569038461894 4.626247584819794 4.327278062701225 4.40221045166254 4.318484961986542 4.396452531218529 4.486953914165497 4.693282600492239 4.758926555514336 5.036889207549393 5.201183017343283 5.250255446881056 5.306976530700922 5.269875805824995 5.15506649389863 5.185149107128382 5.030954205431044 4.70797898247838 4.454355388879776 4.344451352953911 4.621267206966877 4.765363652259111 4.6457358077168465 4.503353051841259 4.582085236907005 4.467875249683857
5.448908731341362 5.50978921353817 5.517059452831745 5.518094599246979 5.475342571735382 5.430876724421978 5.261045508086681 5.114452689886093 4.913896564394236 5.121358446776867 5.164310522377491 5.374055653810501 5.644029602408409 5.524201989173889 5.562414415180683 5.455712229013443 5.381850861012936 5.397945754230022 5.433959662914276 5.723475813865662 5.88665671646595 6.096462607383728 6.265082508325577 6.12375982105732 6.114582344889641 6.02299764752388 5.79524889588356 5.528849475085735 5.029975213110447 4.955098987556994 4.8685515858232975 4.757400285452604 4.644426368176937 4.473753347992897 4.272411614656448 4.135800302028656 3.941847011446953 4.0482088923454285 4.337653964757919 4.324150383472443 4.430803582072258 4.552002474665642 4.760759714990854 5.129523854702711 5.280662104487419 5.215272456407547 5.226383786648512 5.454661063849926 5.768018141388893 5.8674997091293335 5.820932537317276 5.74645072221756 5.732630416750908 5.622441284358501 5.361570045351982 5.313035286962986 5.240545943379402 5.089804800227284 5.099185556173325 5.153488656505942 5.120287695899606 5.055803535506129 5.033972370438278 5.11063477024436 5.1908935979008675 4.8276628740131855 4.521196782588959 4.476967677474022 4.4417232647538185 4.374943748116493 4.518229179084301 4.59206648170948 4.56705316901207 4.818238876760006 4.961264154408127 5.1363409124314785 5.314076729118824 5.381752923130989 5.3261648863554 5.338485166430473 5.054563493467867 4.756591208279133 4.536318555474281 4.483970068395138 4.553617537021637 4.542241171002388 4.414323195815086 4.553570710122585 4.338565692305565 4.185252413153648
5.420053415000439 5.588338486850262 5.58926235884428 5.336538068950176 5.281311850994825 5.075581953860819 4.830844011157751 4.721526298671961 4.461525976657867 4.822699297219515 4.983908976428211 5.181038733571768 5.3790634125471115 5.470361337065697 5.330553278326988 5.186518505215645 5.226363521069288 5.338800437748432 5.35544503480196 5.476078279316425 5.602666884660721 5.827507674694061 6.123924106359482 6.171183958649635 6.14755317568779 6.0130444169044495 5.789929702877998 5.414237007498741 5.1714578084647655 5.029650684446096 5.027235432062298 4.934575757943094 4.725998900830746 4.589532874524593 4.7058602049946785 4.630481451749802 4.375774078071117 4.347386956214905 4.4715579226613045 4.395333789288998 4.413343407213688 4.593635685741901 4.73999185487628 4.914420321583748 5.1901340670883656 5.2634987980127335 5.356689095497131 5.557858236134052 5.851814150810242 5.880081206560135 5.669571757316589 5.701749250292778 5.724342241883278 5.543261654675007 5.58751679956913 5.4206352680921555 5.339166633784771 5.247672013938427 5.225533712655306 5.3039210848510265 5.219418555498123 5.133909024298191 5.150276534259319 5.298248715698719 5.269282069057226 5.0272251083515584 4.6863072365522385 4.714180026203394 4.4836002960801125 4.3703631311655045 4.392548501491547 4.337867498397827 4.408712424337864 4.575060419738293 4.693297203630209 4.917551930993795 5.136083215475082 5.328039526939392 5.452263653278351 5.408281274139881 5.165617726743221 4.9856514821294695 4.696388132870197 4.476452358067036 4.509535506367683 4.488013312220573 4.37044158577919 4.299027770757675 4.21854168176651 4.081911668181419
5.378205105662346 5.580497160553932 5.508820004761219 5.090938787907362 5.002262838243041 4.878550162538886 4.5872800797224045 4.396841153502464 4.416251517832279 4.700894542038441 4.830187074840069 4.93673728313297 5.124407298862934 5.2642338909208775 5.169395841658115 5.2223472483456135 5.2880954928696156 5.318078510463238 5.240173116326332 5.247654709964991 5.383152440190315 5.586073435842991 5.736742243170738 6.007506549358368 5.9478676319122314 5.926008522510529 5.874926224350929 5.461930558085442 5.150763802230358 5.068886196240783 5.095985289663076 4.957959991879761 4.897997062653303 4.723733738064766 4.86192231066525 4.7381273470819 4.648280441761017 4.51373927295208 4.575648419559002 4.394610412418842 4.499600790441036 4.7943525947630405 4.899595724418759 4.837598614394665 4.913459848612547 5.115667469799519 5.290305633097887 5.475144907832146 5.727442130446434 5.842289328575134 5.862834230065346 5.796328186988831 5.710901394486427 5.643173232674599 5.607851594686508 5.427824519574642 5.211269780993462 5.0669895159080625 5.170644372701645 5.18893338739872 5.076185376383364 5.0552359921857715 5.275626797229052 5.387937128543854 5.309655275195837 5.3233736008405685 5.203045140951872 4.954987270757556 4.545933753252029 4.479537084698677 4.376144781708717 4.2534951865673065 4.3703871220350266 4.449045918881893 4.486631043255329 4.719531033188105 4.914710596203804 5.197506844997406 5.420269668102264 5.379337668418884 5.052353627979755 4.888978190720081 4.6521298214793205 4.364112019538879 4.25046443939209 4.335687607526779 4.5505570992827415 4.321113303303719 4.077987372875214 3.9909574389457703
5.3969429433345795 5.559109635651112 5.531459376215935 5.127342930063605 4.97908798744902 4.697471112012863 4.511847570538521 4.469586163759232 4.589340761303902 4.553363919258118 4.620135463774204 4.7031281888484955 4.85386285930872 4.981517676496878 5.056268107146025 5.153685072436929 5.218031145632267 5.4221392050385475 5.412433184683323 5.440951436758041 5.503263249993324 5.341983065009117 5.340627655386925 5.649002864956856 5.780273526906967 5.782774239778519 5.7723285257816315 5.645304769277573 5.4389989003539085 5.125369830057025 4.829475060105324 5.008844572585076 5.064302859827876 4.907371215522289 4.81550257652998 4.696945659816265 4.506290033459663 4.4461629912257195 4.5496295392513275 4.724956545978785 4.952396107837558 5.1024697907269 4.944459339603782 4.659617319703102 4.608845636248589 4.967651325277984 5.253470093011856 5.508913174271584 5.8646466583013535 6.066119596362114 6.07043482363224 6.051278933882713 5.8916255831718445 5.844524949789047 5.75792521238327 5.448156371712685 5.195006988942623 5.1607586070895195 5.177003778517246 5.177812837064266 5.095653682947159 5.163403656333685 5.502964407205582 5.503280870616436 5.307411979883909 5.188881475478411 5.059223743155599 4.730588719248772 4.323305785655975 4.4475844874978065 4.361787438392639 4.245148450136185 4.230081886053085 4.247325584292412 4.475742988288403 4.799336176365614 4.728240072727203 4.930155444890261 5.138273108750582 5.219599474221468 4.950221301987767 4.885852355509996 4.727876707911491 4.487522952258587 4.356901198625565 4.463056996464729 4.524758718907833 4.347206577658653 4.240131452679634 4.108490347862244
5.224848594516516 5.412244312465191 5.406937412917614 5.195436794310808 4.925709017552435 4.655226394534111 4.439236968755722 4.340472519397736 4.591787867248058 4.479821212589741 4.5887316390872 4.590523429214954 4.5431941375136375 4.507215395569801 4.765060190111399 5.150770591571927 5.195653233677149 5.285611171275377 5.412729345262051 5.495034344494343 5.3773308172822 5.319540202617645 5.195239689201117 5.354026146233082 5.465220846235752 5.66889114677906 5.627646669745445 5.63408337533474 5.510914400219917 5.072657968848944 4.906806629151106 4.782904013991356 5.109007498249412 5.100699830800295 4.810684621334076 4.660559594631195 4.5902735367417336 4.639984518289566 4.630018994212151 4.839959815144539 5.058132875710726 5.223965663462877 5.226762108504772 5.045757875777781 4.986551055917516 5.17354616895318 5.483087562024593 5.586894266307354 5.9982385486364365 6.154184341430664 6.355757266283035 6.262945979833603 5.957072302699089 5.754356309771538 5.626883581280708 5.492760017514229 5.340517610311508 5.32842144370079 4.994455833802931 4.943644595332444 4.984456775709987 5.162768661975861 5.533130541443825 5.573286786675453 5.400248281657696 5.107606602832675 4.874316211789846 4.646783024072647 4.529438205063343 4.348762109875679 4.314165115356445 4.301776811480522 4.274337738752365 4.288320392370224 4.441103674471378 4.728298112750053 4.944212329573929 4.885837277397513 4.978296959307045 5.071174502372742 4.825020898133516 4.6680959686636925 4.64524082839489 4.5343102142214775 4.558213911950588 4.3355100601911545 4.381890371441841 4.55382913351059 4.438453800976276 4.220602810382843
5.0 5.2660769037902355 5.373780354857445 5.137873999774456 4.933643122203648 4.802827388048172 4.500556141138077 4.389703869819641 4.444540813565254 4.346112981438637 4.365079328417778 4.4254955649375916 4.458844475448132 4.477473683655262 4.450361989438534 4.748263880610466 4.937716778367758 4.991582744405605 5.177920199930668 5.136680863797665 5.0 5.033437204547226 5.105894673615694 5.085526593029499 5.311436485499144 5.372023805975914 5.344035625457764 5.23710124194622 5.26396444067359 5.199097823351622 5.0 4.8848033137619495 4.904751814901829 5.0171667721588165 4.9948999064508826 4.945436506532133 4.9010134395211935 4.697508122771978 4.726101271808147 4.795235693454742 5.0 5.172368846833706 5.23543918505311 5.17046932131052 5.244622528553009 5.448908731341362 5.728573724627495 5.979323834180832 6.076764687895775 6.237291172146797 6.269841343164444 6.221220046281815 5.96928596496582 5.838036239147186 5.608944408595562 5.448908731341362 5.3277310356497765 5.208809282630682 4.903308628126979 4.7746241092681885 5.0 5.220886114984751 5.28420040383935 5.4433876276016235 5.282767917960882 5.065724207088351 4.8007166013121605 4.567556083202362 4.466910548508167 4.37276154756546 4.365079328417778 4.380083158612251 4.435418583452702 4.353315159678459 4.577498957514763 4.802827388048172 5.043123345822096 5.099392766132951 5.252810418605804 5.148418582975864 5.0 4.71729127690196 4.651372209191322 4.6832966059446335 4.7195481695234776 4.485367052257061 4.464878961443901 4.636535421013832 4.612485021352768 4.457696862518787
4.993331340374425 5.156181734055281 5.244933906942606 5.193574111908674 4.981769730802625 4.911611648276448 4.634126350283623 4.405336007475853 4.282618537545204 4.131720215082169 3.9445021003484726 4.109848290681839 4.289128929376602 4.3743907660245895 4.281098321080208 4.484395384788513 4.657373912632465 4.750711787492037 4.982431452954188 4.765163753181696 4.607878103852272 4.704848546534777 4.873821716755629 4.870017543435097 4.940278036519885 5.034717516973615 5.068941437639296 4.956717868335545 5.132220545783639 5.142850475385785 5.062303305603564 4.964297425467521 4.892620285972953 4.9217655044049025 5.157656781375408 5.156409367918968 5.206270143389702 4.797724578529596 4.721923246979713 4.569614045321941 4.806065075099468 5.081261470913887 5.264763291925192 5.302231591194868 5.362853221595287 5.610524564981461 5.831110402941704 6.02214016020298 6.289850473403931 6.219785660505295 6.196514815092087 6.137734577059746 6.024302393198013 5.791183039546013 5.559675432741642 5.374700613319874 5.152545142918825 5.019768907222897 4.834510758519173 4.640469551086426 4.944818513467908 5.12569323182106 5.245774947106838 5.255010295659304 5.169506408274174 4.966519654262811 4.597504325211048 4.378637485206127 4.38485000282526 4.442867003381252 4.390758164227009 4.4447703287005424 4.4550951942801476 4.623650088906288 4.67072281986475 4.969725129194558 5.063089416362345 5.322374776005745 5.254615433514118 5.28284378349781 5.05868177395314 4.776504579931498 4.626359306275845 4.757143761962652 4.654366001486778 4.557354561984539 4.555898047983646 4.551345892250538 4.655251353979111 4.731322545558214
4.757145419716835 4.861100455746055 4.900079416111112 4.913453934714198 4.843782149255276 4.659694246947765 4.4456797093153 4.119229465723038 4.108273759484291 3.944878503680229 3.969152793288231 3.926549553871155 4.013916626572609 4.085322543978691 4.202991724014282 4.2985933274030685 4.5025987178087234 4.6012333407998085 4.707044530659914 4.6645549684762955 4.508337825536728 4.517413191497326 4.533156752586365 4.7530965693295 4.7169397212564945 4.762006755918264 5.014425236731768 5.105983819812536 5.047945831902325 4.8841326124966145 4.944696570746601 4.985981989884749 4.8812587931752205 4.985989573178813 5.163384173065424 5.303272642195225 5.338773652911186 5.239266026765108 5.008728607208468 4.88322569988668 4.931976869702339 5.209828577935696 5.4079395160079 5.529488995671272 5.711905583739281 5.797164738178253 6.020305827260017 6.196370795369148 6.197151094675064 6.204149574041367 6.201035529375076 6.064896881580353 5.897533372044563 5.604924224317074 5.363744907081127 5.269634742289782 5.204848181456327 4.958403506316245 4.724225923418999 4.676397889852524 4.677988439798355 4.960151528939605 5.040743052959442 4.929983587935567 4.878032626584172 4.696072954684496 4.396888054907322 4.342998117208481 4.245533421635628 4.253877028822899 4.418413527309895 4.330306500196457 4.405037425458431 4.708773624151945 4.865143680945039 4.8659702856093645 4.9940178578253835 5.16051983460784 5.116397924721241 5.166982375085354 5.058046774938703 4.940340528264642 4.8308731988072395 4.700803775340319 4.552976004779339 4.5452722534537315 4.563593566417694 4.423298537731171 4.5975083857774734 4.674931839108467
4.418284930288792 4.566688723862171 4.632158949971199 4.588125832378864 4.440179616212845 4.280606359243393 4.230735898017883 4.03837077319622 4.185571670532227 4.128842055797577 3.9501433074474335 3.902599662542343 3.7002335488796234 3.72796431183815 3.931140825152397 4.180892035365105 4.303137585520744 4.38872616738081 4.468738287687302 4.487035796046257 4.545593783259392 4.522805772721767 4.404664486646652 4.684864357113838 4.748958218842745 4.961987505666912 5.142492149025202 5.053596626967192 4.904222022742033 4.731008689850569 4.715727847069502 4.727471265941858 4.688512161374092 4.833098519593477 5.162897016853094 5.350896902382374 5.533931404352188 5.518296658992767 5.187374800443649 5.162337236106396 5.223030559718609 5.232139304280281 5.266414266079664 5.533152222633362 5.953432694077492 5.992257669568062 6.067037284374237 6.371208429336548 6.328956186771393 6.435050070285797 6.417516618967056 6.259521842002869 6.026153787970543 5.796584263443947 5.523846559226513 5.325638689100742 5.101615032181144 4.924325537867844 4.760607313364744 4.702745731920004 4.764602594077587 4.871570114046335 4.744570069015026 4.5615555346012115 4.525739476084709 4.435198940336704 4.268934577703476 4.295499250292778 4.213400036096573 4.09833200275898 4.159658849239349 4.337204024195671 4.351192191243172 4.626217857003212 4.731293339282274 4.824295490980148 4.856512900441885 5.080364253371954 5.069150915369391 5.164746418595314 5.051234685815871 4.882335672155023 4.640204794704914 4.46239996701479 4.396350495517254 4.210935533046722 4.266133829951286 4.326134696602821 4.4940899685025215 4.581920616328716
4.28007110953331 4.255601614713669 4.426528885960579 4.43990733474493 4.19674314558506 4.075067713856697 3.9860787242650986 4.094854518771172 4.171199724078178 4.255126044154167 4.14403572678566 3.7980856001377106 3.617957979440689 3.6076247692108154 3.8215959817171097 4.0617600083351135 4.303041473031044 4.178439825773239 4.091411605477333 4.197906851768494 4.305467829108238 4.359259456396103 4.161911159753799 4.5226700231432915 4.689090400934219 4.779444448649883 4.921982469968498 4.985318009275943 4.9675275082699955 4.800127744674683 4.796063732355833 4.662263132631779 4.606518633663654 4.689827784895897 5.101301232352853 5.187833737581968 5.361621677875519 5.65828412771225 5.479143261909485 5.291269458830357 5.267702843993902 5.232048034667969 5.331250317394733 5.745265409350395 6.008213758468628 6.0903506726026535 6.011051461100578 6.347368359565735 6.446158736944199 6.526200771331787 6.273467689752579 6.024572402238846 5.941647067666054 5.810132920742035 5.704355761408806 5.345397554337978 5.153454588726163 5.068840393796563 4.993982953601517 5.0350618455559015 5.0166707881726325 4.8804727010428905 4.857940310612321 4.760014694184065 4.509902335703373 4.442455321550369 4.334368854761124 4.121230244636536 3.8828150928020477 3.8559507578611374 3.972220793366432 4.113501310348511 4.075124487280846 4.290828853845596 4.52803160995245 4.548625387251377 4.643684662878513 4.646353609859943 4.712022356688976 4.843364991247654 4.923443701118231 4.761338122189045 4.650002382695675 4.4955019652843475 4.275731444358826 4.252209812402725 4.171076938509941 4.0918441116809845 4.0412695705890656 4.264692962169647
4.310515895485878 4.116234332323074 4.200269281864166 4.177388250827789 4.317421987652779 4.31058369576931 4.330460801720619 4.259354621171951 4.4116392359137535 4.201600402593613 3.96019347012043 3.5917583107948303 3.5353343188762665 3.6115235090255737 3.6032885313034058 3.90242800116539 4.124063774943352 4.201829209923744 4.105821177363396 3.9815279841423035 4.11334328353405 4.212525710463524 4.0257470309734344 4.31283175945282 4.443477019667625 4.603208526968956 4.7897399216890335 5.1170856691896915 5.276949591934681 5.014139354461804 5.0 4.87629889510572 4.6282897144556046 4.807369243353605 4.968187401536852 5.079331174492836 5.2641343884170055 5.383305139839649 5.427348203957081 5.225391611456871 5.251736119389534 5.214369185268879 5.335678644478321 5.759101361036301 5.976579636335373 5.959184467792511 5.932803601026535 6.103252470493317 6.4662328362464905 6.628157794475555 6.269841343164444 5.894729271531105 5.916465744376183 5.942928120493889 5.946740433573723 5.625670924782753 5.340228900313377 5.222754329442978 5.3837451338768005 5.381680652499199 5.197172611951828 5.107014840468764 4.911596551537514 4.891414754092693 4.652455598115921 4.587155282497406 4.560918137431145 4.195648953318596 3.8283342868089676 3.752652406692505 3.861607164144516 3.9762116968631744 4.169043153524399 4.138469249010086 4.319406449794769 4.27445188164711 4.2817094922065735 4.493060074746609 4.670279957354069 4.720259923487902 4.748263880610466 4.734892453998327 4.73297419026494 4.350094646215439 4.303641840815544 4.233563169836998 4.080027639865875 4.043925926089287 3.99716854095459 4.032663181424141
4.286755472421646 4.129294008016586 4.1152045130729675 4.320232793688774 4.553072713315487 4.618600271642208 4.65549249202013 4.685628712177277 4.52617235481739 4.177836775779724 3.866458535194397 3.538926988840103 3.52423757314682 3.508608192205429 3.6222711205482483 3.7193824350833893 4.094125255942345 4.2637814581394196 4.1734544932842255 4.009074568748474 4.116474911570549 4.179624542593956 4.087607711553574 4.180557802319527 4.40426267683506 4.3785422667860985 4.717820230871439 5.233528278768063 5.556117482483387 5.316068045794964 5.320903733372688 5.194225627928972 4.828021097928286 4.840381201356649 4.9076188169419765 5.058034327812493 5.249323435127735 5.312180668115616 5.272171627730131 5.265474487096071 5.185467805713415 5.269179400056601 5.246079079806805 5.581928603351116 5.806036442518234 5.890736356377602 5.893548205494881 6.21852345764637 6.465179473161697 6.6113366186618805 6.3654302060604095 5.951064899563789 5.949511602520943 6.140662208199501 5.9491116553545 5.804412662982941 5.561029613018036 5.4819537699222565 5.544356480240822 5.5734483152627945 5.421648249030113 5.243640933185816 5.26043776422739 4.905703840777278 4.765309300273657 4.684044010937214 4.603299126029015 4.387269131839275 3.9783158898353577 3.746558725833893 3.808218315243721 3.885130435228348 4.077065661549568 4.050057455897331 4.0117548406124115 3.912573903799057 3.9415597170591354 4.426998570561409 4.517275728285313 4.670303724706173 4.662669487297535 4.6585071459412575 4.572060480713844 4.404752850532532 4.2295727878808975 4.153892397880554 4.010930433869362 4.114028736948967 3.9433444291353226 4.04249370098114
4.363391473889351 4.164950400590897 4.327845051884651 4.60827000439167 4.870283817872405 4.887823965400457 4.864601576700807 4.870744282379746 4.589952044188976 4.232191443443298 3.970908895134926 3.5952232778072357 3.3508919179439545 3.3656296133995056 3.6870796978473663 3.828646093606949 4.051290899515152 4.317979961633682 4.15387749671936 4.0210044384002686 4.164036586880684 4.140375480055809 4.073222130537033 4.083070084452629 4.257079586386681 4.335421025753021 4.7378781251609325 5.144881773740053 5.433526001870632 5.46971257776022 5.524282120168209 5.433101169764996 4.998632880015066 4.998914611278451 4.889872958883643 4.925760431215167 5.249546896666288 5.303972270339727 5.356905795633793 5.291753821074963 5.374777466058731 5.3868455067276955 5.531143620610237 5.742912217974663 5.788240358233452 6.041843593120575 6.326691210269928 6.413491666316986 6.658546626567841 6.582847833633423 6.430828869342804 6.353683620691299 6.149657666683197 6.237958073616028 6.0042740404605865 5.87779626250267 5.792271867394447 5.65202996134758 5.785175561904907 5.891440138220787 5.612896420061588 5.339171625673771 5.459940433502197 5.1730505004525185 5.117344595491886 4.836967829614878 4.505075737833977 4.369116723537445 4.1593459993600845 3.9202801883220673 3.773980289697647 3.8300418853759766 3.8571476191282272 3.731837570667267 3.6654245853424072 3.747015595436096 3.8861142843961716 4.075947627425194 4.346058219671249 4.28018219769001 4.387467578053474 4.5942991226911545 4.5800406485795975 4.494077302515507 4.42154087126255 4.258182123303413 4.0078940987586975 4.021718576550484 4.07331258058548 4.157472923398018
4.636866636574268 4.599061906337738 4.666378237307072 4.831076227128506 4.907739814370871 4.765029065310955 4.844059739261866 4.802563767880201 4.58635576069355 4.4431063905358315 4.112371280789375 3.759360983967781 3.468281626701355 3.5143473744392395 3.751414939761162 3.857996165752411 4.035603031516075 4.314182922244072 4.213813468813896 4.184601977467537 4.258920401334763 4.363961890339851 4.287341088056564 4.366881772875786 4.456543363630772 4.5810766518116 4.62583165615797 4.859328204765916 5.186408348381519 5.241668224334717 5.403606072068214 5.442835874855518 5.130656333640218 5.174366869032383 4.90819544531405 5.047682928852737 5.2452984265983105 5.171361230313778 5.19127206876874 5.34145213663578 5.45590378344059 5.64372755587101 5.808512344956398 5.956119149923325 6.112070307135582 6.493574231863022 6.730870008468628 6.6865260899066925 6.8376147747039795 6.666590124368668 6.676454544067383 6.548781543970108 6.369222700595856 6.348847895860672 6.1175428330898285 6.06516107916832 6.101724952459335 5.9533774852752686 5.963597446680069 5.878057926893234 5.523194931447506 5.287440810352564 5.224951468408108 5.1588779501616955 5.2442107908427715 4.887015568092465 4.507392719388008 4.196130707859993 4.0147775411605835 3.933977261185646 3.7774986773729324 3.806043788790703 3.858979269862175 3.795798048377037 3.8111117482185364 3.8632016628980637 3.846917226910591 3.848506733775139 4.1843486577272415 4.152199700474739 4.237912222743034 4.502739906311035 4.52202420681715 4.506687894463539 4.534425437450409 4.391399659216404 4.07255545258522 4.123291522264481 4.292033836245537 4.355248212814331
4.8973999079316854 4.887733310461044 4.832902792841196 4.988855886040255 5.152227012440562 4.892577901482582 4.704838935285807 4.757337141782045 4.759762939065695 4.615106545388699 4.414119087159634 3.9400044083595276 3.4911008179187775 3.5774506628513336 3.6947907507419586 3.8742318749427795 4.188352525234222 4.253229275345802 4.338087663054466 4.376905262470245 4.316370710730553 4.399964362382889 4.446106143295765 4.456484727561474 4.491620101034641 4.610522873699665 4.790942631661892 4.763411618769169 5.041406359523535 5.193630326539278 5.190384648740292 5.1432254165410995 5.016707823378965 5.083136688917875 5.05261140409857 5.134381363168359 5.328253358602524 5.393676720559597 5.3079234808683395 5.296076741069555 5.481612794101238 5.837738290429115 6.195369735360146 6.062333509325981 6.225050240755081 6.48188516497612 6.716048568487167 6.884056031703949 6.695404797792435 6.512979567050934 6.677524447441101 6.6486115753650665 6.457143276929855 6.369525343179703 6.318998485803604 6.112608388066292 5.999041050672531 5.975829213857651 5.867878273129463 5.8205632120370865 5.609829388558865 5.3800806775689125 5.211324691772461 5.16998004168272 5.1140898745507 4.814699459820986 4.464735388755798 4.393783621490002 4.110805094242096 4.192727208137512 4.210394248366356 4.016742631793022 4.047158807516098 4.086797013878822 4.098430946469307 4.13715161383152 4.147202521562576 4.063260108232498 4.213688671588898 4.203507751226425 4.40733190625906 4.661135263741016 4.4941652193665504 4.54377681016922 4.493594504892826 4.430656842887402 4.33258980512619 4.282427430152893 4.595285393297672 4.684041142463684
5.0 4.980783050414175 5.138158835470676 5.337734669446945 5.261922441422939 5.021701389923692 4.77853961288929 4.907608684152365 4.910745602101088 4.771700240671635 4.365079328417778 3.917996659874916 3.595535308122635 3.650798052549362 3.68759348988533 3.96019347012043 4.269312620162964 4.351423159241676 4.434728287160397 4.505710303783417 4.365079328417778 4.498719833791256 4.5496635138988495 4.5374224334955215 4.424375928938389 4.551091268658638 4.630852043628693 4.653570428490639 4.735547807067633 5.0837677624076605 5.0 4.898861516267061 4.8361194506287575 4.8465237859636545 4.949053856544197 5.1314484141767025 5.340957492589951 5.385122261941433 5.324124954640865 5.442552678287029 5.634920671582222 5.968635380268097 5.990323722362518 6.159386113286018 6.2552230060100555 6.62016361951828 6.936573684215546 6.939938813447952 6.727674305438995 6.41880139708519 6.587301641702652 6.610213965177536 6.678750962018967 6.458522826433182 6.345122009515762 6.116691455245018 5.9797994792461395 6.102944985032082 5.9255921840667725 5.7443177700042725 5.634920671582222 5.408167354762554 5.147911459207535 5.198790896683931 5.146569861099124 4.802827388048172 4.650397785007954 4.455486834049225 4.461973011493683 4.409807696938515 4.365079328417778 4.19042281806469 4.095100536942482 4.258812442421913 4.226493760943413 4.11334328353405 4.100007638335228 4.284459054470062 4.141363725066185 4.13859523832798 4.365079328417778 4.521302059292793 4.626849815249443 4.556433781981468 4.3357715010643005 4.365079328417778 4.4698454812169075 4.441385865211487 4.682256169617176 4.950709515251219
5.172441061586142 5.317154675722122 5.344407260417938 5.324275158345699 5.2627138420939445 5.183180347084999 4.979814384132624 4.969793655909598 5.111966067925096 4.728679936379194 4.3283528089523315 3.87127622961998 3.6551256477832794 3.64085391163826 3.772977590560913 4.087969735264778 4.27352711558342 4.383145272731781 4.33984138071537 4.5059634745121 4.457238651812077 4.408754445612431 4.536046609282494 4.559702202677727 4.421326145529747 4.563671499490738 4.706595651805401 4.5762695372104645 4.5912910252809525 4.752505011856556 4.763453993946314 4.644695483148098 4.608795158565044 4.807132259011269 4.765997789800167 4.979744653683156 5.145526630803943 5.2461604960262775 5.327802710235119 5.6255509704351425 5.7514723390340805 5.913161188364029 5.954601913690567 6.172231733798981 6.34696364402771 6.596459448337555 6.953520625829697 6.990810036659241 6.786554604768753 6.585244983434677 6.542780697345734 6.747579574584961 6.773986369371414 6.628492325544357 6.456908285617828 6.180719584226608 6.021714508533478 6.180807054042816 6.0552893579006195 5.911121666431427 5.613066591322422 5.334488078951836 5.121524538844824 4.962127013131976 5.015526170609519 4.798491466790438 4.705348685383797 4.6155063435435295 4.755418356508017 4.552954621613026 4.451548680663109 4.39521387219429 4.28838774561882 4.293866753578186 4.378306269645691 4.22106146812439 4.232084229588509 4.2142051458358765 4.114677980542183 4.218608886003494 4.362488389015198 4.537832997739315 4.7328524105250835 4.5894041657447815 4.399570114910603 4.333474114537239 4.446708261966705 4.550796039402485 4.870549254119396 5.167074836790562
5.376787036657333 5.379953272640705 5.459647737443447 5.224331263452768 5.321369916200638 5.174743011593819 4.960298729129136 4.985593541059643 4.953881925903261 4.725579302757978 4.509312622249126 4.130272790789604 3.849853128194809 3.7432873249053955 3.8823213428258896 4.067806750535965 4.288337975740433 4.3921660631895065 4.426752999424934 4.529316201806068 4.423633627593517 4.393270798027515 4.608935751020908 4.636111669242382 4.6010686457157135 4.5805369690060616 4.717568121850491 4.750659726560116 4.558394476771355 4.595171920955181 4.708200357854366 4.7129264660179615 4.651389606297016 4.576595276594162 4.6365563198924065 4.899884955957532 4.966916188132018 5.082954810932279 5.400174222886562 5.5865055322647095 5.741363763809204 5.861473008990288 6.104991585016251 6.354430615901947 6.431169658899307 6.554936766624451 6.73603817820549 6.74353614449501 6.445419639348984 6.506229788064957 6.545529067516327 6.570226401090622 6.563129276037216 6.473139673471451 6.235448494553566 6.207902505993843 5.804907605051994 6.092107966542244 6.180632635951042 6.10152393579483 5.806054696440697 5.459952801465988 5.165882762521505 4.854684183374047 4.825720600783825 4.733244366943836 4.639262966811657 4.802116546779871 5.040587987750769 4.899892117828131 4.659011997282505 4.5425232499837875 4.449852220714092 4.583679027855396 4.540540054440498 4.487849734723568 4.593340530991554 4.459658041596413 4.350650832056999 4.547177776694298 4.493322372436523 4.56291276961565 4.796096310019493 4.797520209103823 4.701303485780954 4.5475636795163155 4.601217396557331 4.8759053740650415 5.059577175416052 5.350646041333675
5.3439560905098915 5.565316043794155 5.715927183628082 5.503528825938702 5.372617430984974 5.2896952629089355 5.165811162441969 5.225006360560656 5.126050366088748 4.952727169729769 4.660477451980114 4.398869574069977 4.299448877573013 4.231802150607109 4.069029465317726 4.1641440987586975 4.325954839587212 4.389209225773811 4.49737474322319 4.616369567811489 4.704432226717472 4.491592682898045 4.567876383662224 4.550087042152882 4.560853727161884 4.760178346186876 4.990741043002345 4.963239023927599 4.768844582140446 4.677396975457668 4.658189564943314 4.780568107962608 4.719060715287924 4.565170966088772 4.764080140739679 4.885094938799739 4.903727071359754 4.824575129896402 5.2923403680324554 5.566399693489075 5.70393443107605 5.86942121386528 6.173778772354126 6.4367276430130005 6.581927686929703 6.601629704236984 6.721959561109543 6.615375280380249 6.323075890541077 6.312694996595383 6.416517049074173 6.4641426503658295 6.369796246290207 6.246425658464432 6.022081822156906 5.802542120218277 5.7400332391262054 5.819294974207878 5.954267680644989 6.097614020109177 5.771795809268951 5.556468181312084 5.3649332001805305 5.111800013110042 4.9588084779679775 5.0000866526170284 5.081946970894933 5.028033317066729 5.062215649522841 4.966463595628738 4.879886461421847 4.611882120370865 4.4614677131175995 4.708673804998398 4.691872671246529 4.64053638279438 4.663436263799667 4.677680060267448 4.619210064411163 4.77448184043169 4.823745619505644 4.655956849455833 4.801155626773834 4.845643853768706 4.767867308109999 4.886820502579212 4.950684770010412 5.036988826468587 5.1477637980133295 5.567788630723953
5.390877947211266 5.681319087743759 5.771056413650513 5.696305558085442 5.5726393312215805 5.452400520443916 5.250666569918394 5.2756438590586185 5.16035845503211 5.166343282908201 4.872752092778683 4.547568187117577 4.4741033762693405 4.415868483483791 4.287779927253723 4.091040268540382 4.11610059440136 4.357528835535049 4.466385692358017 4.475884549319744 4.6542782709002495 4.814975801855326 4.775430765002966 4.793989509344101 4.834981989115477 4.9363411124795675 5.180509425699711 5.1138014905154705 5.033790071029216 4.82536505907774 4.851428791880608 4.767672400921583 4.819979406893253 4.888111082836986 5.063320710323751 5.005428966251202 4.903877638280392 4.728958420455456 5.001130707241828 5.2492027170956135 5.504918918013573 5.813982784748077 6.324473470449448 6.368793994188309 6.508954018354416 6.622824966907501 6.470716446638107 6.146907806396484 6.263165771961212 6.365443766117096 6.45033672451973 6.292073130607605 6.310788989067078 6.249120533466339 5.978091135621071 5.867405980825424 5.655543953180313 5.721142813563347 5.9344420582056046 5.7453688234090805 5.700678080320358 5.655383616685867 5.4114362969994545 5.059198741801083 4.9533815914765 5.095968013629317 5.295538567006588 5.304031129926443 5.1915958151221275 5.111690051853657 4.9875965097453445 4.782434646040201 4.429651722311974 4.554310105741024 4.643076620995998 4.712464548647404 4.677045941352844 4.5960356295108795 4.7134411707520485 4.8058269545435905 4.822191782295704 4.8813796043396 4.9779508681967854 5.053698970004916 5.0263233738951385 5.065274606458843 5.266737192869186 5.245654564350843 5.465969070792198 5.7358769327402115
5.689484104514122 5.813244208693504 5.892949774861336 5.892152562737465 5.799226015806198 5.78493632376194 5.684170871973038 5.466528236865997 5.421823970973492 5.385308563709259 5.021701389923692 4.76551728323102 4.667322970926762 4.322081804275513 4.331839978694916 4.151853546500206 4.0685249119997025 4.268794730305672 4.245583862066269 4.529272168874741 4.802827388048172 4.895870313048363 4.897915823385119 4.901014594361186 4.998650704656029 5.056941923685372 5.23680292069912 5.319584757089615 5.315056033432484 5.003526714572217 5.0 4.915731595829129 4.871559953317046 5.1254642847925425 5.154002821072936 4.943058076314628 4.787386208772659 4.802893791347742 4.785863813012838 5.265450477600098 5.514632947742939 5.8403050899505615 6.284448802471161 6.2983280420303345 6.315712034702301 6.460210382938385 6.458220928907394 6.1807581782341 6.354353576898575 6.468142569065094 6.401289701461792 6.319420486688614 6.34002611041069 6.406188458204269 6.231295317411423 6.104239821434021 5.980939269065857 5.9330929815769196 5.8605920523405075 5.653097927570343 5.569196417927742 5.498182848095894 5.207382794469595 4.886785987764597 4.698894582688808 4.936722042039037 5.117833595722914 5.231441464275122 5.260086208581924 5.083086518570781 4.8685515858232975 4.737543389201164 4.647847153246403 4.654754512012005 4.697379544377327 4.66893270611763 4.554988257586956 4.539774097502232 4.639110192656517 4.6254439651966095 4.802827388048172 4.982357675908133 5.117876147851348 5.474543012678623 5.450449995696545 5.530753955245018 5.654056593775749 5.6911274045705795 5.76348751783371 6.042853072285652
5.788469612598419 5.83426721394062 5.882669240236282 5.826258584856987 5.8496516942977905 5.894575715065002 5.80718494951725 5.742867514491081 5.51536537706852 5.495286509394646 5.190130732953548 4.871327904984355 4.708105623722076 4.471542052924633 4.449450075626373 4.350935444235802 4.145910367369652 4.1569676995277405 4.179601296782494 4.434627555310726 4.782034400850534 4.972370313480496 5.041100941598415 5.12120584025979 5.1643299125134945 5.158469285815954 5.322120599448681 5.410676524043083 5.4066938534379005 5.185794457793236 5.04476937931031 4.958066153340042 4.965241176541895 5.170147120952606 5.21665807813406 4.9263047613203526 4.732360653579235 4.7100067883729935 4.704526886343956 5.072703706100583 5.3922999277710915 5.748164802789688 6.045622900128365 6.22855581343174 6.225238814949989 6.421829909086227 6.292175054550171 6.120765581727028 6.2335823476314545 6.256529688835144 6.361514031887054 6.271315664052963 6.321655213832855 6.3105714321136475 6.4670175313949585 6.4177073538303375 6.2690989673137665 5.996943488717079 5.791158750653267 5.649813637137413 5.5504001304507256 5.352086238563061 5.045566209591925 4.765006620436907 4.586404003202915 4.653684981167316 4.926591012626886 5.013968263519928 5.182119756937027 4.964088369160891 4.774150941520929 4.749825336039066 4.970917124301195 4.741395227611065 4.672505967319012 4.75717531517148 4.590458609163761 4.63557954877615 4.644241705536842 4.72100617364049 4.86833275295794 5.016196689102799 5.154926124960184 5.6318312883377075 5.752648413181305 5.890523716807365 5.99669061601162 5.9672387689352036 6.078087165951729 6.2267182022333145
5.6118253991007805 5.629477724432945 5.781957730650902 5.729430019855499 5.77237956225872 5.808200165629387 5.732990503311157 5.6232815980911255 5.53904764354229 5.345921441912651 5.101513480767608 4.972746716812253 4.6407487243413925 4.494852423667908 4.411638751626015 4.209125861525536 4.081738442182541 4.088166654109955 4.279605224728584 4.434558264911175 4.572936110198498 4.807272739708424 4.94870153721422 5.130463596433401 5.245218966156244 5.33164169639349 5.468521565198898 5.546613782644272 5.51791749894619 5.299539919942617 5.2670422568917274 5.118023660033941 5.290608182549477 5.430655404925346 5.303831361234188 5.167451314628124 4.911415530368686 4.623773731291294 4.694809373468161 4.899583570659161 5.153626566752791 5.567924194037914 5.976349040865898 6.081885918974876 6.117968559265137 6.319334656000137 6.407569497823715 6.163633614778519 6.108916029334068 6.107759699225426 6.114883273839951 6.28352165222168 6.15687869489193 6.3024307787418365 6.4890144765377045 6.463595926761627 6.304887384176254 6.15538164973259 5.7834642380476 5.577524863183498 5.433057211339474 5.143779795616865 4.884067149832845 4.904574267566204 4.71665546298027 4.698396101593971 4.679669700562954 4.889216981828213 5.037942258641124 4.969702146481723 4.901429070159793 4.90942319855094 4.969287230633199 4.669877998530865 4.559541754424572 4.606624580919743 4.591063000261784 4.790539536625147 4.7919366508722305 4.912175415083766 5.001360142487101 4.899057969450951 5.2021149918437 5.524126254022121 5.671483725309372 5.889774933457375 6.117917746305466 6.077666357159615 6.115457713603973 6.131407991051674
5.152847561985254 5.353019684553146 5.6313978135585785 5.659840628504753 5.702781900763512 5.807616412639618 5.672765150666237 5.472263470292091 5.448772571980953 5.283293928951025 5.14043441042304 4.78482423350215 4.522844888269901 4.553748890757561 4.382136724889278 4.22150120139122 4.211885184049606 4.274658337235451 4.479727223515511 4.600897245109081 4.731261283159256 4.917685640975833 5.062043028883636 5.231838654726744 5.40606714785099 5.44361025094986 5.431121662259102 5.568419173359871 5.536894351243973 5.478369817137718 5.396231338381767 5.242166742682457 5.431353747844696 5.565208867192268 5.227684564888477 5.017981813289225 4.895906774327159 4.458715915679932 4.637961648404598 4.849413875490427 5.157419499009848 5.542765781283379 5.936342179775238 6.079937070608139 6.0758161544799805 6.2698690593242645 6.36949896812439 6.2516385316848755 6.239103749394417 6.062956228852272 6.04024350643158 5.994016453623772 5.882411748170853 6.069387421011925 6.158479824662209 6.110881045460701 6.234344020485878 6.2867724895477295 5.8731479942798615 5.662540718913078 5.2942584082484245 4.927311548963189 4.839272499084473 4.975277062039822 4.808067511767149 4.523963965475559 4.383171238005161 4.346340596675873 4.402719475328922 4.634566158056259 4.894369030371308 4.935757541097701 4.793506059795618 4.462601356208324 4.480361044406891 4.503201059997082 4.595738276839256 4.783833082765341 4.84846799634397 5.058304690755904 4.951644409447908 5.009078785660677 5.408820658922195 5.615985356271267 5.852646753191948 5.944961309432983 6.125933304429054 5.874606370925903 5.836020857095718 5.683054700493813
4.895674670115113 5.168497655540705 5.462220162153244 5.652633830904961 5.551371239125729 5.671164095401764 5.722084566950798 5.4348767176270485 5.310108587145805 5.193106587976217 5.040353871881962 4.834935776889324 4.53670758754015 4.337565824389458 4.099155887961388 4.110621958971024 4.175626561045647 4.322685226798058 4.492304623126984 4.572712704539299 4.807634148746729 5.015605704393238 5.231632702052593 5.152903962880373 5.347868129611015 5.395240560173988 5.338190980255604 5.510414652526379 5.454881601035595 5.423268340528011 5.412312150001526 5.330889411270618 5.269000381231308 5.426370240747929 4.976989522110671 4.762869682163 4.457634501159191 4.176222160458565 4.456683024764061 4.7395869344472885 4.978128343354911 5.3176505118608475 5.662675350904465 5.929951444268227 5.8677999675273895 5.965645462274551 6.030456647276878 6.062380522489548 6.073882207274437 5.922055467963219 5.7396940886974335 5.667863041162491 5.614658370614052 5.650937184691429 5.603336729109287 5.8435969799757 6.085361018776894 6.30025789141655 5.861392468214035 5.659418106079102 5.307083334773779 4.9981809631572105 4.9060276709496975 4.745680000633001 4.6407173201441765 4.423024840652943 4.017821773886681 3.9733365178108215 3.97004596889019 4.280786067247391 4.5670777559280396 4.73097151145339 4.645562022924423 4.628806933760643 4.637542553246021 4.6893565356731415 4.755010362714529 4.993087367620319 5.023119682446122 5.044154222123325 5.06391862872988 5.068475063890219 5.372174680233002 5.346707813441753 5.612196810543537 5.983500182628632 5.994093343615532 5.695381611585617 5.6902531534433365 5.6195807084441185
5.0 5.257233958691359 5.223735831677914 5.495665073394775 5.379316732287407 5.372023805975914 5.451057739555836 5.323338732123375 5.2679672464728355 5.135280583053827 5.0 4.740477558225393 4.535563103854656 4.171254709362984 4.000390991568565 3.993055522441864 4.158948287367821 4.1905418783426285 4.531967602670193 4.725485760718584 5.0 5.292870569974184 5.409823507070541 5.270628910511732 5.312919393181801 5.372023805975914 5.216919202357531 5.353652201592922 5.148358233273029 4.963902845047414 5.0 5.043360525742173 5.048335283063352 5.083965556696057 4.891046993434429 4.627976194024086 4.39885787665844 4.128441363573074 4.337367191910744 4.795601665973663 5.0 5.2930437959730625 5.638414621353149 5.852079540491104 5.82472637295723 5.88665671646595 5.923723131418228 5.9625206887722015 5.87856762111187 5.808073952794075 5.634920671582222 5.482174642384052 5.311771649867296 5.1909286715090275 5.19832881167531 5.514632947742939 5.752802491188049 5.686787515878677 5.596520118415356 5.266280621290207 5.0 4.744629301130772 4.723885804414749 4.437216110527515 4.455207735300064 4.16790671646595 3.8940396159887314 3.7901458144187927 3.8826411962509155 4.105289950966835 4.365079328417778 4.645452611148357 4.640197865664959 4.8233988508582115 4.7621432505548 4.748263880610466 4.846674241125584 4.896599017083645 4.948636959306896 5.001447531976737 5.0 5.077933156862855 5.1668669283390045 5.335599891841412 5.484479032456875 5.88665671646595 6.049366220831871 5.867750346660614 5.799532979726791 5.575307421386242
5.218498893082142 5.317199155688286 5.367701128125191 5.35868164151907 5.195095241069794 5.1669032499194145 5.278972331434488 5.336475297808647 5.382881350815296 5.13056555762887 5.0472199730575085 4.851159965619445 4.484789744019508 4.147523865103722 3.7838007509708405 3.801167905330658 3.9997565001249313 4.07230406999588 4.425329938530922 4.82786163687706 5.096690598875284 5.472777970135212 5.427270084619522 5.341621935367584 5.28113417327404 5.34327432513237 5.222319923341274 4.947305549867451 4.833605196326971 4.611823707818985 4.7455027140676975 4.829642083495855 4.839879162609577 4.701993837952614 4.676600992679596 4.537421129643917 4.251529350876808 4.09195251762867 4.304636046290398 4.7583286091685295 5.0775827607139945 5.38079634308815 5.805792436003685 5.801289156079292 5.89360736310482 5.884144753217697 5.823662579059601 5.7141197472810745 5.889526903629303 5.634236186742783 5.4537490755319595 5.272885803133249 5.003258947690483 4.861937966197729 5.032626111060381 5.150148291140795 5.245897937566042 5.175895262509584 5.102802012115717 4.944921596907079 4.683916866779327 4.4963327422738075 4.4742730632424355 4.244668036699295 4.162639304995537 3.928759843111038 3.7895598262548447 3.8890302181243896 3.8558773696422577 4.060514122247696 4.239319711923599 4.524934776127338 4.608184956014156 4.800650216639042 4.713561087846756 4.62101373821497 4.703065622597933 4.7869326919317245 4.849071092903614 4.884518496692181 5.01509599504061 5.110671808943152 5.104291485622525 5.3379130735993385 5.6466614454984665 5.931687951087952 6.109720543026924 6.061503663659096 5.817345231771469 5.5442410334944725
5.059997891075909 5.0580271147191525 5.232809893786907 5.12328514829278 5.037531161215156 5.213971510529518 5.159564521163702 5.183011796325445 5.340860486030579 5.361344963312149 5.092779332771897 4.9380294512957335 4.612140581011772 4.182798936963081 3.846766874194145 3.7669862806797028 3.9456307142972946 4.10133883357048 4.381265975534916 4.764611981809139 5.173978451639414 5.62337514013052 5.652773454785347 5.545461475849152 5.299424100667238 5.277115982025862 5.4516106098890305 5.084338905289769 4.90867649205029 4.6447354555130005 4.815659523010254 4.829834457486868 4.794266391545534 4.45864025503397 4.377530589699745 4.277177676558495 4.100001975893974 4.19760063290596 4.52013872563839 4.838387202471495 5.111745689064264 5.417119897902012 5.586457997560501 5.801899954676628 6.06695793569088 5.759597644209862 5.693935379385948 5.568288266658783 5.834431499242783 5.4838960990309715 5.327863171696663 5.134474700316787 4.757237620651722 4.7602552734315395 4.744334742426872 4.681044444441795 4.646334573626518 4.759768098592758 4.9287422792986035 4.743381440639496 4.602976031601429 4.409244954586029 4.3346114456653595 4.15368065237999 4.019049182534218 3.9568760991096497 3.721323013305664 3.7332049012184143 3.816368281841278 3.887289986014366 4.08201701939106 4.324901700019836 4.448744542896748 4.728201497346163 4.7732712142169476 4.728686548769474 4.644080549478531 4.8511378560215235 4.81170242652297 4.713406544178724 4.915560558438301 5.002616272540763 5.049724201671779 5.3912170976400375 5.633619278669357 5.795638933777809 5.812966376543045 5.8759889006614685 5.7430244237184525 5.555943995714188
4.656963758170605 4.737015757709742 5.095021268352866 5.087103806436062 5.118269687518477 5.226512216031551 5.079635800793767 5.038755300920457 5.202478226274252 5.16097666695714 5.079283639788628 4.823777750134468 4.638357721269131 4.29161511361599 3.87844055891037 3.8259365409612656 3.992096781730652 4.229428023099899 4.3736159056425095 4.802240896970034 5.33905241638422 5.54660402238369 5.5728743597865105 5.490447618067265 5.308227650821209 5.354641415178776 5.497507564723492 5.235828384757042 5.01854408881627 4.68290701508522 4.687093608081341 4.8854477144777775 4.597211852669716 4.246053546667099 4.288554638624191 4.246688559651375 4.203184545040131 4.490535072982311 4.784048516303301 4.927804837934673 5.213440805673599 5.417652614414692 5.497050359845161 5.747119039297104 5.905703455209732 5.875242576003075 5.7012346386909485 5.684517472982407 5.787942185997963 5.519043542444706 5.360733903944492 5.156020782887936 4.812877364456654 4.811366628855467 4.845317825675011 4.659559801220894 4.419087581336498 4.537795968353748 4.885185826569796 4.808999374508858 4.587621763348579 4.571985639631748 4.405981749296188 4.183746352791786 4.076049849390984 4.05749075114727 3.8731592893600464 3.661893457174301 3.592493385076523 3.6988238990306854 3.9069760590791702 4.350409433245659 4.540978223085403 4.748143460601568 4.8124016262590885 4.756944831460714 4.669804573059082 4.713815562427044 4.688377678394318 4.686702117323875 5.024431843776256 5.231289528310299 5.292343106120825 5.571331791579723 5.742488279938698 5.7760076224803925 5.723052844405174 5.688272044062614 5.541209764778614 5.608263537287712
4.288085997104645 4.366808980703354 4.576812572777271 4.761274512857199 4.851408042013645 5.036592450924218 5.085866069421172 5.090592401102185 5.0778616685420275 5.11041346937418 4.934293213300407 4.8482409212738276 4.754864815622568 4.474869333207607 4.1515810042619705 3.9531827718019485 4.166410937905312 4.399275928735733 4.415675550699234 4.811923541128635 5.274976529181004 5.583945997059345 5.607788003981113 5.663037002086639 5.443180128931999 5.589779578149319 5.659610107541084 5.297552403062582 5.040511395782232 4.8477626126259565 4.850219702348113 4.914246583357453 4.630432166159153 4.507598392665386 4.327486753463745 4.450291618704796 4.731130711734295 4.991606987314299 5.1595718413591385 5.377854071557522 5.475235767662525 5.386830121278763 5.425238087773323 5.66853255033493 5.888737738132477 5.925866663455963 5.837381035089493 5.815127864480019 5.840196460485458 5.782730653882027 5.461297705769539 5.230120979249477 5.004560483212117 4.854697408154607 4.779987130314112 4.731647092849016 4.56928089261055 4.380578584969044 4.597587324678898 4.632396847009659 4.573465250432491 4.345480799674988 4.276139438152313 4.135843366384506 4.027290344238281 4.0979355573654175 4.024945721030235 3.779318407177925 3.723684996366501 3.7607594579458237 3.9227278530597687 4.20840211212635 4.372716173529625 4.633039943873882 4.72853560000658 4.671043790876865 4.655604735016823 4.700920674949884 4.62518997490406 4.675974473357201 4.920761818066239 5.129232183098793 5.375811196863651 5.580626353621483 5.802226886153221 5.702332258224487 5.851215645670891 5.81724151968956 5.614802353084087 5.72033204138279
4.11334328353405 4.129098057746887 4.208262637257576 4.4872744753956795 4.65039748698473 4.7030179388821125 4.7885677963495255 4.716898966580629 4.955992451868951 5.149994632229209 5.032862103544176 4.867860935628414 4.924700940027833 4.7066159918904305 4.493928477168083 4.410325326025486 4.54472329467535 4.594571515917778 4.534937739372253 4.954642532393336 5.317460335791111 5.626960247755051 5.761209055781364 5.7923296093940735 5.617460831999779 5.730305016040802 5.756383612751961 5.559582561254501 5.174407884478569 4.931620960123837 4.846850195899606 4.708700235933065 4.607156701385975 4.4737208634614944 4.447502121329308 4.704928919672966 5.098966043442488 5.324971899390221 5.3845977783203125 5.495249815285206 5.514632947742939 5.481608621776104 5.667304024100304 5.815519466996193 5.8294593542814255 5.965987890958786 5.9909965097904205 5.882292911410332 5.848938375711441 5.9000275284051895 5.481770820915699 5.137574644759297 5.047138091176748 4.910607058554888 4.858753690496087 4.704928919672966 4.556633196771145 4.427108131349087 4.3828075379133224 4.440740086138248 4.310515895485878 4.202851727604866 4.272686541080475 4.138808324933052 4.097836390137672 4.033944234251976 3.9716070145368576 3.8098997622728348 3.7816424667835236 3.9341245591640472 3.993055522441864 4.223157688975334 4.416666068136692 4.531751200556755 4.4817520678043365 4.510134756565094 4.654429443180561 4.672553203999996 4.6027325466275215 4.796164836734533 5.0 5.103271212428808 5.363205000758171 5.625759586691856 5.860645994544029 5.889035165309906 6.014193892478943 5.87901197373867 5.832099914550781 5.867805257439613
3.9744559675455093 3.8454005122184753 4.067481905221939 4.159095138311386 4.279830679297447 4.3300386518239975 4.480603262782097 4.529751613736153 4.839473217725754 5.106656150892377 5.118557494133711 5.054703080095351 5.056115281768143 4.994233588804491 4.7667053155601025 4.801735300570726 4.800845831632614 4.7242796421051025 4.704292397946119 5.1102406065911055 5.441610217094421 5.896973237395287 5.915222615003586 5.865126699209213 5.814157128334045 5.926207825541496 5.922418907284737 5.674008056521416 5.357799679040909 4.980411003343761 4.820871166884899 4.683330319821835 4.5824893191456795 4.484119080007076 4.636891297996044 5.010931562865153 5.340180620551109 5.4942431300878525 5.71299746632576 5.639030113816261 5.596012398600578 5.586028508841991 5.804893672466278 5.8631885051727295 5.734496712684631 5.810436084866524 5.791040286421776 5.850208178162575 5.9253015369176865 5.920887812972069 5.720152482390404 5.314059518277645 5.096729621291161 5.081404531374574 4.911796627566218 4.754620678722858 4.63275171816349 4.5012060180306435 4.349526017904282 4.2233384400606155 4.204500168561935 4.238252267241478 4.4503045827150345 4.549813978374004 4.25830215215683 4.233886003494263 4.035268276929855 3.8799188286066055 3.963785320520401 4.069596827030182 4.138285666704178 4.233802035450935 4.49115227907896 4.613756649196148 4.435775354504585 4.3832555413246155 4.616458415985107 4.623618945479393 4.76374926045537 4.866035748273134 4.959446513094008 5.01761615741998 5.359069295227528 5.7311926037073135 5.877665653824806 6.02640874683857 6.159750744700432 6.052817851305008 6.048747301101685 5.82175649702549
3.8616417348384857 3.823092058300972 3.9636512845754623 3.9386095106601715 4.105324670672417 4.11806158721447 4.405706413090229 4.645954258739948 4.787210486829281 5.030300791841 5.101355658844113 5.117880338802934 5.094861425459385 4.963837792165577 4.78789784014225 4.85736814327538 5.000510364770889 4.951608399860561 4.722724575549364 4.903695015236735 5.259967111051083 5.609666369855404 5.936208888888359 5.969167575240135 6.089253649115562 5.968212187290192 5.927737504243851 5.7813990861177444 5.477714687585831 5.1157101429998875 5.103253033012152 5.039598513394594 4.839121401309967 4.70276502892375 4.696386735886335 5.041492818854749 5.314479395747185 5.56804995983839 5.803687199950218 5.870204493403435 5.848696157336235 6.049267277121544 5.889288559556007 5.704918727278709 5.810140296816826 5.691679194569588 5.636366382241249 5.762336105108261 5.869954153895378 5.974688827991486 5.718716233968735 5.401620306074619 5.339800752699375 5.2526248805224895 5.030406028963625 4.978767107240856 4.752122350037098 4.452234767377377 4.4168247655034065 4.37777291983366 4.49259988963604 4.6694571897387505 4.634314551949501 4.801085125654936 4.866590211167932 4.508195035159588 4.28163543343544 4.124918505549431 4.193935617804527 4.134714677929878 4.1548120230436325 4.0756043791770935 4.2091551423072815 4.456747509539127 4.56462349742651 4.631712846457958 4.764485452324152 4.722590260207653 4.862239370122552 4.961662550922483 4.9080536887049675 4.7457654774188995 5.1928019523620605 5.687831491231918 5.896568447351456 5.9312015026807785 6.114330962300301 6.07215516269207 6.002229750156403 5.749281868338585
3.9580197632312775 3.950786367058754 4.1610341519117355 4.072652459144592 4.046255871653557 4.196634218096733 4.406387694180012 4.552826881408691 4.725088719278574 5.013302824227139 5.049188486300409 5.10702533647418 5.131942089647055 4.921973301097751 4.721397217363119 4.713272750377655 4.675622060894966 4.911600304767489 4.837495870888233 5.034115125890821 5.28235187754035 5.53588479757309 5.735839158296585 5.813948959112167 6.172605529427528 6.251488029956818 6.062532812356949 5.942228361964226 5.8125486969947815 5.555410049855709 5.464498698711395 5.565233044326305 5.083058690652251 4.9737528641708195 4.8277329467237 4.908105740323663 5.160912182182074 5.382848531007767 5.536322630941868 5.832995921373367 5.90615913271904 5.90553991496563 5.9874846786260605 5.81750750541687 5.79144723713398 5.739275589585304 5.8096445351839066 5.960279107093811 5.986234098672867 6.001892536878586 5.649731457233429 5.567347072064877 5.456169284880161 5.24099063128233 5.086009902879596 4.778005927801132 4.554642997682095 4.509194083511829 4.599715359508991 4.551644958555698 4.787581246346235 4.96104747755453 4.844440454617143 4.978449214249849 5.025365098845214 4.819579683244228 4.627910517156124 4.481076821684837 4.586165212094784 4.483953416347504 4.1890086978673935 4.140190556645393 4.148007929325104 4.4790855795145035 4.6598804742097855 4.730973169207573 4.93803468067199 4.819853287190199 4.845227478072047 5.009513591066934 4.9322822177782655 4.948567785322666 5.079059666022658 5.440123416483402 5.635524243116379 5.911351889371872 5.978368818759918 5.962510704994202 5.804838016629219 5.517498515546322
4.1152481734752655 4.23308789730072 4.34511624276638 4.282803311944008 4.235307201743126 4.296478554606438 4.4667403772473335 4.778765793889761 4.709069263190031 4.863451765850186 4.955277377739549 4.8648132011294365 4.785918649286032 4.725062754005194 4.5045701041817665 4.320412427186966 4.472421668469906 4.673960618674755 4.934265972115099 5.003008031053469 5.2060190215706825 5.482398383319378 5.68151518702507 5.811551883816719 6.211609840393066 6.3032266497612 6.0380396991968155 5.968657732009888 5.970380082726479 5.9338027238845825 5.785179510712624 5.610018372535706 5.3046590462327 5.170656926929951 5.023970482870936 4.887659465894103 4.9471110152080655 5.212659928947687 5.359700806438923 5.6863223016262054 5.76601929962635 5.886358246207237 5.887603387236595 5.909973084926605 5.8882395923137665 5.929837450385094 5.798254162073135 5.966680198907852 5.9171198308467865 5.825812220573425 5.618779622018337 5.419383645057678 5.444109849631786 5.225639492273331 5.061973589472473 4.7170099429786205 4.472494348883629 4.4978418201208115 4.769893903285265 4.849837347865105 4.9708982883021235 4.957902431488037 4.977960824035108 5.195253863930702 5.178447626531124 5.072979093529284 4.9507784098386765 4.938008259050548 4.815338142216206 4.514955095946789 4.450639262795448 4.345425665378571 4.302719980478287 4.541225619614124 4.650693163275719 4.891526056453586 5.056850844994187 5.066709467209876 4.891745764762163 4.897946519777179 5.113401813432574 5.112575311213732 5.002304710505996 5.297358203679323 5.44873122125864 5.640997886657715 5.84347166121006 5.676622539758682 5.545126311480999 5.2557615004479885
4.365079328417778 4.465659447014332 4.47309710085392 4.530704915523529 4.550902768969536 4.485367052257061 4.598501622676849 4.7361599281430244 4.642372280359268 4.7077155485749245 4.682539664208889 4.577007703483105 4.524734020233154 4.404015503823757 4.426260255277157 4.244791641831398 4.1939350962638855 4.442257545888424 4.77176433429122 4.783407393842936 5.0 5.326545760035515 5.5392661318182945 5.888703614473343 6.102496683597565 6.171254962682724 5.902024134993553 5.841541588306427 5.944680795073509 5.841222256422043 5.634920671582222 5.442830249667168 5.35009004175663 5.241057574748993 5.271877832710743 5.164310522377491 5.140596982091665 5.360627360641956 5.524211339652538 5.6430161744356155 5.634920671582222 5.626441836357117 5.857924744486809 6.0101208835840225 6.035946682095528 5.853794664144516 5.7030752301216125 5.910417512059212 5.695425942540169 5.7825253158807755 5.634920671582222 5.502167344093323 5.377011336386204 5.175543371587992 5.137853669002652 4.846850195899606 4.5271726325154305 4.433734714984894 4.744833894073963 4.978360659442842 5.0 5.0465777376666665 5.192487221211195 5.41102722287178 5.317592471837997 5.317460335791111 5.331265851855278 5.359614118933678 5.12375314719975 4.9897090857848525 5.0 4.921300737187266 4.660617299377918 4.750826880335808 4.846410267055035 5.0 5.273320376873016 5.309841297566891 5.029622700531036 4.896513074636459 5.0 5.044891587458551 4.982852443354204 4.971611623186618 5.136543055996299 5.317460335791111 5.548124052584171 5.582872144877911 5.473640151321888 5.233295690268278
4.558053947985172 4.774228539317846 4.822503123432398 4.870937783271074 4.799676649272442 4.72288703545928 4.748908989131451 4.667530246078968 4.425702951848507 4.45615716278553 4.463745802640915 4.322779476642609 4.304995685815811 4.2856187373399734 4.198367670178413 4.089485853910446 3.92738975584507 4.021100774407387 4.52434130012989 4.782457426190376 4.8355198465287685 5.134499669075012 5.582791045308113 5.846684128046036 6.04574628174305 6.179824396967888 6.040744632482529 5.912256240844727 5.865470767021179 5.722975805401802 5.42620774358511 5.2980514988303185 5.342714115977287 5.212726257741451 5.299416538327932 5.343603640794754 5.24958286434412 5.509811714291573 5.514305718243122 5.399084873497486 5.399174988269806 5.457523688673973 5.7319361716508865 6.0972921550273895 6.107786297798157 5.838682129979134 5.721850320696831 5.678679198026657 5.711733773350716 5.8366908878088 5.6600917130708694 5.595715753734112 5.3981247171759605 5.16572929918766 5.090887015685439 5.002844137197826 4.621019512414932 4.5465268939733505 4.708176422864199 5.103062624111772 5.106785483658314 5.243549346923828 5.307521298527718 5.464872904121876 5.388308800756931 5.525299273431301 5.5093735456466675 5.5601150542497635 5.496012978255749 5.515190213918686 5.434963032603264 5.329070016741753 4.933478371240199 4.983813436701894 5.05038873758167 5.160192046314478 5.310321282595396 5.308815557509661 5.08734424598515 4.772062040865421 4.939799676649272 5.02413927577436 4.8394326120615005 4.748705308884382 4.855779688805342 5.076091410592198 5.200595185160637 5.323743931949139 5.41023600846529 5.168503969907761
4.6440379321575165 4.896651757881045 5.0098622555378824 5.03006239887327 5.0009712079918245 4.870944386348128 4.587389305233955 4.579944759607315 4.6032338216900826 4.477052725851536 4.313168898224831 4.21043373644352 3.99912066757679 3.98707814514637 3.947259783744812 3.7148186564445496 3.657085746526718 4.02257926762104 4.572389125823975 4.968580952845514 5.019525041570887 5.086091831326485 5.505569130182266 5.905837714672089 5.956640541553497 6.158629357814789 6.158038675785065 6.023343726992607 5.795651227235794 5.5854681879282 5.4094373062253 5.337659269571304 5.338201858103275 5.231799054890871 5.3799789398908615 5.2163950353860855 5.216438472270966 5.228014178574085 5.252510141581297 5.085800671949983 5.248300023376942 5.333743803203106 5.472820587456226 5.951606556773186 5.881464257836342 5.963629484176636 5.8916225284338 5.715627744793892 5.823821797966957 5.912489369511604 5.6699685007333755 5.4594893008470535 5.396567918360233 5.180970281362534 4.921893570572138 4.902418190613389 4.742196332663298 4.648362919688225 4.79887330904603 4.96554100420326 5.19789220765233 5.316161662340164 5.405501648783684 5.289096254855394 5.329608507454395 5.473073236644268 5.356106907129288 5.4465533047914505 5.828575417399406 5.881031379103661 5.805912017822266 5.591873675584793 5.335822552442551 5.250279884785414 5.2569143287837505 5.330547578632832 5.376992151141167 5.080856755375862 5.023912137839943 4.8376634903252125 4.765089750289917 4.9458392057567835 4.865033933892846 4.84919129870832 4.872664278373122 4.949438036419451 4.891008725389838 4.942113417200744 5.131270382553339 4.95118897408247
4.762788470834494 4.991603005328216 5.095770386978984 5.153626911342144 5.1314701326191425 4.834389016032219 4.538103938102722 4.470919445157051 4.519744329154491 4.41255796700716 4.164469093084335 3.9627820253372192 3.7369349598884583 3.7665213644504547 3.8330739736557007 3.7095652520656586 3.678610473871231 3.9985868334770203 4.498906247317791 4.876603661105037 4.920467305928469 5.0026525888824835 5.359529107809067 5.763550773262978 5.9687332063913345 6.144513934850693 6.103895083069801 5.974845662713051 5.737309828400612 5.687823072075844 5.62312938272953 5.563623271882534 5.417265482246876 5.348417907953262 5.438840389251709 5.345825664699078 5.196372475475073 5.148867405951023 5.070623084902763 4.926365250721574 4.918650211766362 5.070373644120991 5.068429987877607 5.418119765818119 5.626779720187187 5.725774019956589 5.8327049016952515 5.71251355111599 5.78740581870079 5.685347095131874 5.572873540222645 5.563366860151291 5.486137270927429 5.1403742376714945 4.712903797626495 4.720492362976074 4.694230407476425 4.668605737388134 4.908052021637559 5.0941710360348225 5.0840952433645725 5.341605097055435 5.501509383320808 5.377684161067009 5.400451496243477 5.303796995431185 5.376955009996891 5.507460236549377 6.042984798550606 6.227634847164154 5.940745770931244 5.862221345305443 5.730351805686951 5.5537328496575356 5.38107056170702 5.3989968448877335 5.39794348180294 5.127017050981522 4.943172778002918 4.6104612946510315 4.775786139070988 5.003400515997782 4.952801465988159 5.020801965147257 4.982558392221108 4.934030044823885 4.668879061937332 4.678630568087101 4.813960995525122 4.661299251019955
4.8933336697518826 5.061743804253638 5.2983492240309715 5.435520187020302 5.201540309935808 4.7889153473079205 4.477415084838867 4.541662335395813 4.339989200234413 4.293527603149414 4.322611093521118 4.200960770249367 3.915473520755768 3.8432522118091583 3.7092772126197815 3.732166886329651 3.9149661362171173 4.037994667887688 4.707665555179119 4.995302910392638 5.057000811211765 5.14004098251462 5.361240431666374 5.601426400244236 5.744500681757927 5.92394232749939 6.0220421850681305 5.932710990309715 5.800104811787605 5.75948029756546 5.768975615501404 5.62399685382843 5.770001038908958 5.620877258479595 5.58298334479332 5.374828763306141 5.219317954033613 5.056739482097328 4.999980488939855 4.955060691572726 5.024675924796611 5.0370060838758945 5.203023664653301 5.192888397723436 5.2773176692426205 5.62443844974041 5.737993121147156 5.541951544582844 5.588598288595676 5.514154769480228 5.580470077693462 5.698792263865471 5.657089203596115 5.4629261419177055 5.005686706281267 4.745661336928606 4.662486054003239 4.836133234202862 4.832846224308014 5.143957510590553 5.222771260887384 5.3065962716937065 5.361729338765144 5.376457646489143 5.548264719545841 5.585827603936195 5.440809205174446 5.518875382840633 5.986989587545395 5.988828167319298 5.814262852072716 5.821071267127991 5.694363787770271 5.601273402571678 5.3466470912098885 5.420640334486961 5.383551940321922 4.966245528776199 4.8254892230033875 4.796698782593012 4.747382868081331 4.915459780022502 5.044412552379072 5.120421685278416 5.012006831821054 4.829514864832163 4.560111165046692 4.238663986325264 4.351492151618004 4.307090491056442
5.120287695899606 5.230077635496855 5.505691170692444 5.725959315896034 5.463055111467838 5.036531479563564 4.658118709921837 4.594094380736351 4.548323228955269 4.316969141364098 4.266493022441864 4.210734665393829 3.9616835862398148 3.9325781166553497 3.903484344482422 4.131375253200531 4.301605448126793 4.303433299064636 4.723864551633596 4.9683915241621435 5.0 5.07212114520371 5.237452909350395 5.676733776926994 5.623087100684643 5.766436830163002 5.983326211571693 5.875338837504387 5.823601186275482 5.866928771138191 5.853794664144516 5.743028223514557 5.881619900465012 5.794124752283096 5.748182833194733 5.648527592420578 5.496508218348026 5.461553558707237 5.293536297976971 5.380454510450363 5.251736119389534 5.243212655186653 5.055465926416218 5.032592031639069 5.02118200995028 5.29024638235569 5.449082590639591 5.492986589670181 5.522063262760639 5.337386205792427 5.536334328353405 5.633309036493301 5.548341684043407 5.531853586435318 5.2954925410449505 5.095384381711483 5.012143774656579 4.973069028928876 4.941755644977093 4.98797251842916 5.054563493467867 5.119540663436055 5.336628444492817 5.565862059593201 5.648368373513222 5.64859539270401 5.621749609708786 5.62635637819767 5.89902825653553 5.858099013566971 5.689484104514122 5.547569766640663 5.358338356018066 5.231301244348288 5.103233251720667 5.172404944896698 5.1562118623405695 4.9658319959416986 4.880208531394601 4.9850974953733385 5.0 5.04007559735328 5.270455721765757 5.108901904895902 4.764482416212559 4.587155282497406 4.183869585394859 3.957105800509453 3.837680220603943 3.9268308132886887
5.214379522949457 5.371708199381828 5.5721671506762505 5.786202549934387 5.520455092191696 5.1318317372351885 4.845210462808609 4.715331066399813 4.668935090303421 4.385981969535351 4.2438653111457825 4.165040999650955 4.059254601597786 3.956357464194298 4.190787747502327 4.495068266987801 4.609247110784054 4.647444225847721 4.659585654735565 4.898748686537147 4.980332909617573 4.987006882438436 5.220151953399181 5.426111593842506 5.5275727063417435 5.635247007012367 5.795296058058739 5.780787393450737 5.874677747488022 5.903544649481773 5.940301939845085 5.8305999636650085 5.8483679592609406 5.9666527062654495 6.088168993592262 5.985751301050186 5.810078009963036 5.777268633246422 5.5990540608763695 5.6879449635744095 5.481269508600235 5.310543868690729 4.900257829576731 4.726527612656355 4.718789681792259 4.993500220007263 5.221987850964069 5.487291477620602 5.414120517671108 5.2510314248502254 5.435108691453934 5.536020286381245 5.560092739760876 5.572155378758907 5.401998236775398 5.338877849280834 5.30850924551487 5.181053597480059 4.95338711887598 4.828263912349939 4.687243029475212 4.900819016620517 5.331370420753956 5.708344504237175 5.776612237095833 5.712349563837051 5.69074310362339 5.7204123586416245 5.6433019787073135 5.575508736073971 5.559136793017387 5.337445549666882 5.218571964651346 4.943735268898308 4.993013862404041 5.075963130220771 5.093730064108968 5.01068101497367 5.193964671343565 5.329404138028622 5.393264479935169 5.399219356477261 5.496058985590935 5.191676542162895 4.812801778316498 4.439686723053455 3.9665985852479935 3.6577700078487396 3.533821702003479 3.7853235006332397
5.257182773202658 5.383179150521755 5.514547899365425 5.7049523293972015 5.586430057883263 5.267608128488064 5.037144580855966 4.724231623113155 4.588531479239464 4.622806012630463 4.415186569094658 4.192797541618347 4.196318909525871 4.146403968334198 4.151073843240738 4.458517134189606 4.790026433765888 4.846152504906058 4.844773150980473 4.876659531146288 5.080182245001197 5.1812028884887695 5.158633645623922 5.269817356020212 5.284926183521748 5.352554693818092 5.217298194766045 5.411080494523048 5.8213648945093155 5.937704965472221 5.998234674334526 6.21261440217495 6.128534600138664 6.199379414319992 6.167100220918655 6.18312768638134 6.065670996904373 5.810172855854034 5.766419619321823 5.7946839183568954 5.577875338494778 5.260634142905474 4.971875392366201 4.736494477838278 4.777588807046413 4.8668063804507256 4.94345607701689 5.201790817081928 5.10080274194479 5.289670284837484 5.3012145310640335 5.348099879920483 5.567982085049152 5.630011335015297 5.431519374251366 5.477539747953415 5.566803701221943 5.3913913667202 4.956301501952112 4.702630117535591 4.631262682378292 4.570915773510933 4.949767654761672 5.524900518357754 5.843524187803268 5.936392769217491 5.851966291666031 5.801633968949318 5.416210405528545 5.203040633350611 5.2463893592357635 5.127275558188558 5.104543911293149 5.045760064385831 5.11701999232173 4.917650353163481 4.7872803173959255 4.952556793577969 5.239082798361778 5.574850477278233 5.557622909545898 5.474742576479912 5.394346788525581 5.424099527299404 5.123550603166223 4.687431156635284 4.1491493582725525 3.8136155158281326 3.631521165370941 3.8002771884202957
5.194112826138735 5.273686777800322 5.560398697853088 5.73423944413662 5.595605298876762 5.343959406018257 5.208698343485594 4.96877073077485 4.813417661935091 4.694059547036886 4.445201568305492 4.3222426623106 4.177817180752754 4.141772165894508 4.1663626581430435 4.499413408339024 4.885444240644574 4.924082192592323 4.85034454613924 4.885424207895994 5.199171882122755 5.441381931304932 5.287434849888086 5.354729741811752 5.193196702748537 5.11233395896852 5.111578926444054 5.199793074280024 5.570441037416458 5.903187021613121 6.179367825388908 6.246048659086227 6.109678074717522 6.094385460019112 6.051555126905441 5.971193090081215 6.085273027420044 5.944922715425491 5.9786392748355865 5.741600766777992 5.5046650394797325 5.265800338238478 5.102739538997412 4.877406386658549 4.681186676025391 4.705298002809286 4.796660505235195 4.989556606160477 4.968062855768949 5.269635822623968 5.380262061953545 5.2841840870678425 5.390325412154198 5.602370910346508 5.59201966971159 5.4689012467861176 5.542594492435455 5.249229613691568 4.896451709792018 4.766723141074181 4.79792345315218 4.711499325931072 4.850777480751276 5.307320933789015 5.700191482901573 5.685780346393585 5.9357040375471115 5.940057635307312 5.474374890327454 5.327767841517925 5.278511960059404 5.208363477140665 5.146127138286829 5.147994253784418 5.146321197971702 5.0923774391412735 4.9664955283515155 5.0182660249993205 5.165072809904814 5.330560468137264 5.354986190795898 5.448649860918522 5.456802621483803 5.486496761441231 5.163817778229713 4.762279689311981 4.455325864255428 4.191150814294815 4.040224999189377 4.037798121571541
4.992187467869371 5.1398548018187284 5.448356792330742 5.658499002456665 5.695893093943596 5.4866646230220795 5.22960901260376 5.108094159513712 5.037075923755765 4.837998505681753 4.795672707259655 4.594607912003994 4.2716143280267715 4.360309913754463 4.472979120910168 4.626442603766918 4.834665171802044 5.040971203707159 4.885113807395101 5.0023752261768095 5.193696729838848 5.266875755041838 5.272237155586481 5.411732606589794 5.3490422666072845 5.1564317382872105 5.275415405631065 5.376386754214764 5.384253673255444 5.519153326749802 5.8481863886117935 6.009054929018021 5.961221605539322 5.861262828111649 5.818453952670097 5.864267870783806 5.91575562953949 5.854792147874832 5.872479900717735 5.433104895055294 5.198202058672905 5.127141512930393 5.106130242347717 4.892198294401169 4.817639198154211 4.686673656105995 4.743988215923309 4.779111817479134 5.050405580550432 5.198669042438269 5.284753069281578 5.28349069878459 5.208955965936184 5.2599551528692245 5.129290418699384 5.3138381242752075 5.402328483760357 5.132655706256628 5.073264297097921 5.015766372671351 4.952096450142562 4.959880942478776 4.955792631953955 5.106255793944001 5.436917245388031 5.62974214553833 5.715962275862694 5.956335291266441 5.675023049116135 5.538350492715836 5.3673142939805984 5.407976768910885 5.2531280182302 5.29131505638361 5.10343755595386 4.9973024215432815 4.995382757042535 5.020311356056482 5.156023520976305 5.12032201513648 5.15528635121882 5.301415342837572 5.332849808037281 5.317153260111809 5.139423590153456 4.900418855249882 4.644856862723827 4.292260780930519 4.22833189368248 4.231797084212303
5.0 5.1187298353761435 5.522788539528847 5.626402795314789 5.7650236785411835 5.689484104514122 5.35385899245739 5.248534865677357 5.1175973657518625 5.018811533227563 5.0 4.858237598091364 4.584629833698273 4.664724841713905 4.549287594854832 4.627976194024086 4.849965367466211 4.889564020559192 4.8288872838020325 4.873935664072633 5.0 5.034443316981196 5.206709895282984 5.257285591214895 5.267692599445581 5.251736119389534 5.299529917538166 5.314861424267292 5.1760306395590305 5.351886413991451 5.634920671582222 5.842098370194435 5.836144760251045 5.827906355261803 5.7615793496370316 5.83209328353405 5.844312682747841 5.624772049486637 5.5233583599328995 5.171113684773445 5.0 4.953015996143222 4.822466243058443 4.633915275335312 4.762448351830244 4.682539664208889 4.58110474050045 4.661434665322304 4.916150169447064 4.908906659111381 5.0 5.015431247884408 5.007557890494354 4.992685616016388 4.912604428827763 5.0 5.071791484951973 5.100185759365559 5.16418531537056 5.026565105654299 5.0 5.151964947581291 4.9923405080335215 5.0538471434265375 5.192071199417114 5.514632947742939 5.6024835631251335 5.771307200193405 5.688944607973099 5.661262720823288 5.634920671582222 5.60423880815506 5.542333573102951 5.288371965289116 5.028302094433457 4.934275792911649 4.953442830592394 4.667423851788044 4.838557504117489 4.919365625828505 5.0 5.167451128363609 5.066844639368355 5.177619531750679 4.934711665846407 4.748263880610466 4.506081826984882 4.299645647406578 4.296853691339493 4.343433827161789
5.043276543729007 5.2925667725503445 5.605053193867207 5.743776559829712 6.006866842508316 5.923384875059128 5.720416754484177 5.396328270435333 5.241876821964979 5.192800275981426 5.271528325974941 5.187199357897043 4.8230961710214615 4.740059711039066 4.602818824350834 4.710905477404594 4.818746093660593 4.9633625615388155 4.758192803710699 4.662332907319069 4.677216075360775 4.906156975775957 5.039727431721985 5.261626411229372 5.236080642789602 5.204318407922983 5.352032035589218 5.223016049712896 5.059939655475318 5.1506041176617146 5.527195073664188 5.677154436707497 5.756090357899666 5.737733766436577 5.677488148212433 5.705970823764801 5.6968023627996445 5.4178353026509285 5.177304521203041 4.826862420886755 4.726541265845299 4.691015761345625 4.497944600880146 4.50688898563385 4.6389090269804 4.637398757040501 4.482178241014481 4.625656120479107 4.715443886816502 4.677307903766632 4.708957951515913 4.804909136146307 4.851742452010512 4.705342557281256 4.626580029726028 4.89165267907083 4.991427990607917 4.995311727980152 5.161595828831196 5.072447061538696 5.001336109125987 4.995922491070814 4.920612834393978 4.81382517144084 5.118920067325234 5.40839247405529 5.422101691365242 5.643802285194397 5.800309926271439 5.8283731341362 5.853424146771431 5.916069597005844 5.748902782797813 5.352146402001381 4.907184932380915 4.813519287854433 4.711882248520851 4.419224224984646 4.404279738664627 4.592371471226215 4.734560456126928 4.854739680886269 4.840719159692526 4.843825977295637 4.8107715882360935 4.528098031878471 4.30885024368763 4.294212162494659 4.225505962967873 4.252486601471901
5.238425508141518 5.415198281407356 5.534763857722282 5.817029625177383 5.752189457416534 5.804769769310951 5.761681646108627 5.613439343869686 5.460725501179695 5.337696261703968 5.479867570102215 5.425636321306229 5.1138179283589125 4.889798182994127 4.841936063021421 4.749693553894758 4.748402796685696 4.779284801334143 4.617691673338413 4.457990266382694 4.408254474401474 4.55821480602026 4.795165974646807 5.006671572919004 5.235720574855804 5.447689406573772 5.38633368909359 5.167977679520845 5.110184885561466 5.196433812379837 5.363499671220779 5.423359051346779 5.535695441067219 5.697447285056114 5.475697889924049 5.602110959589481 5.734313353896141 5.37921953946352 5.055001652799547 4.714135397225618 4.465752765536308 4.29925411939621 4.436367116868496 4.334253594279289 4.535554945468903 4.428955279290676 4.318440482020378 4.412198960781097 4.401798881590366 4.42865114659071 4.50791209936142 4.655834995210171 4.614870958030224 4.517475515604019 4.485137946903706 4.744492992758751 4.94999117217958 5.021704877726734 5.0978591945022345 5.059548206627369 5.124606611207128 5.120787909254432 5.070283743552864 4.902355829253793 5.082689523696899 5.203825328499079 5.25311004370451 5.632429867982864 5.847003906965256 5.804757475852966 5.866987034678459 6.008996069431305 5.9305209666490555 5.435982793569565 4.946392700076103 4.829045757651329 4.672582000494003 4.3821074068546295 4.120353609323502 4.213718622922897 4.3435028195381165 4.460636004805565 4.645337201654911 4.726169258356094 4.723419081419706 4.713738411664963 4.487929865717888 4.3570467084646225 4.297960251569748 4.272799640893936
